0.6354536, 1.7248026, 2.9230866, 114, 125, 110
0.6354536, 1.7248026, 2.9593983, 95, 103, 93
0.6354536, 1.688491, 3.0320215, 95, 101, 93
0.6354536, 1.7248026, 2.99571, 95, 103, 93
0.6354536, 1.7248026, 3.0320215, 98, 106, 96
0.6717652, 1.6521794, 2.9230866, 145, 156, 149
0.6717652, 1.6521794, 2.9593983, 146, 157, 151
0.70807683, 1.6158677, 2.9230866, 136, 147, 142
0.70807683, 1.6158677, 2.9593983, 135, 147, 144
0.70807683, 1.6521794, 2.9230866, 142, 153, 147
0.70807683, 1.6521794, 2.9593983, 141, 153, 148
0.70807683, 1.6158677, 2.99571, 138, 149, 147
0.70807683, 1.6158677, 3.0320215, 147, 157, 154
0.70807683, 1.6521794, 2.99571, 139, 151, 147
0.70807683, 1.6521794, 3.0320215, 138, 149, 143
0.6717652, 1.688491, 2.9230866, 147, 157, 148
0.6717652, 1.688491, 2.9593983, 148, 158, 149
0.6717652, 1.7248026, 2.9230866, 124, 134, 123
0.6717652, 1.7248026, 2.9593983, 110, 118, 106
0.70807683, 1.688491, 2.9593983, 151, 162, 154
0.6717652, 1.688491, 2.99571, 114, 122, 112
0.6717652, 1.688491, 3.0320215, 92, 97, 88
0.6717652, 1.7248026, 2.99571, 89, 95, 85
0.6717652, 1.7248026, 3.0320215, 86, 91, 83
0.70807683, 1.688491, 2.99571, 132, 142, 132
0.70807683, 1.688491, 3.0320215, 114, 121, 112
0.6354536, 1.688491, 3.0683331, 110, 118, 112
0.6354536, 1.688491, 3.1046448, 135, 146, 145
0.6354536, 1.7248026, 3.0683331, 114, 124, 120
0.6354536, 1.7248026, 3.1046448, 134, 146, 144
0.6354536, 1.688491, 3.1409564, 143, 154, 155
0.6354536, 1.7248026, 3.1409564, 143, 155, 153
0.6354536, 1.7248026, 3.177268, 141, 154, 155
0.70807683, 1.6158677, 3.0683331, 140, 150, 149
0.70807683, 1.6521794, 3.0683331, 126, 135, 131
0.70807683, 1.6521794, 3.1046448, 118, 125, 124
0.70807683, 1.6521794, 3.1409564, 121, 128, 129
0.6717652, 1.688491, 3.0683331, 103, 109, 103
0.6717652, 1.688491, 3.1046448, 126, 136, 135
0.70807683, 1.688491, 3.0683331, 107, 113, 106
0.70807683, 1.688491, 3.1046448, 111, 117, 116
0.6717652, 1.688491, 3.1409564, 139, 150, 152
0.6717652, 1.688491, 3.177268, 140, 150, 153
0.6717652, 1.7248026, 3.1409564, 142, 154, 155
0.6717652, 1.7248026, 3.177268, 147, 158, 159
0.70807683, 1.688491, 3.1409564, 123, 132, 135
0.70807683, 1.688491, 3.177268, 131, 140, 144
0.70807683, 1.7248026, 3.177268, 144, 154, 157
0.78070015, 1.5069329, 2.9230866, 109, 115, 110
0.78070015, 1.5069329, 2.9593983, 116, 124, 120
0.78070015, 1.5069329, 2.99571, 138, 145, 141
0.78070015, 1.5069329, 3.0320215, 138, 146, 145
0.7443885, 1.5432445, 2.9230866, 119, 127, 121
0.7443885, 1.5432445, 2.9593983, 123, 132, 130
0.7443885, 1.5795561, 2.9230866, 126, 136, 130
0.7443885, 1.5795561, 2.9593983, 129, 140, 138
0.78070015, 1.5432445, 2.9230866, 111, 118, 112
0.78070015, 1.5432445, 2.9593983, 121, 129, 126
0.7443885, 1.5432445, 2.99571, 135, 144, 142
0.7443885, 1.5432445, 3.0320215, 148, 158, 154
0.7443885, 1.5795561, 2.99571, 138, 149, 146
0.7443885, 1.5795561, 3.0320215, 144, 154, 150
0.78070015, 1.5432445, 2.99571, 145, 153, 150
0.78070015, 1.5432445, 3.0320215, 150, 159, 155
0.8170118, 1.5069329, 2.9230866, 108, 113, 108
0.8170118, 1.5069329, 2.9593983, 114, 120, 116
0.8533234, 1.4706212, 2.9230866, 109, 112, 107
0.8533234, 1.4706212, 2.9593983, 113, 117, 113
0.8533234, 1.5069329, 2.9230866, 107, 110, 106
0.8533234, 1.5069329, 2.9593983, 113, 117, 113
0.8170118, 1.4706212, 2.99571, 121, 126, 125
0.8170118, 1.5069329, 2.99571, 126, 132, 130
0.8170118, 1.5069329, 3.0320215, 127, 134, 133
0.8533234, 1.4706212, 2.99571, 118, 122, 120
0.8533234, 1.4706212, 3.0320215, 126, 131, 130
0.8533234, 1.5069329, 3.0320215, 127, 133, 131
0.78070015, 1.5069329, 3.0683331, 137, 145, 144
0.7443885, 1.5432445, 3.0683331, 147, 156, 155
0.7443885, 1.5795561, 3.0683331, 138, 149, 147
0.7443885, 1.5795561, 3.1046448, 145, 154, 151
0.78070015, 1.5432445, 3.0683331, 143, 152, 151
0.78070015, 1.5432445, 3.1046448, 137, 146, 145
0.78070015, 1.5795561, 3.0683331, 143, 153, 152
0.78070015, 1.5795561, 3.1046448, 140, 149, 147
0.78070015, 1.5432445, 3.1409564, 142, 151, 150
0.78070015, 1.5795561, 3.1409564, 144, 153, 151
0.78070015, 1.5795561, 3.177268, 157, 167, 166
0.8170118, 1.5069329, 3.0683331, 133, 140, 138
0.8170118, 1.5069329, 3.1046448, 138, 145, 142
0.8533234, 1.4706212, 3.0683331, 131, 137, 136
0.8533234, 1.4706212, 3.1046448, 134, 139, 138
0.8533234, 1.5069329, 3.0683331, 134, 140, 139
0.8533234, 1.5069329, 3.1046448, 137, 144, 141
0.8170118, 1.5069329, 3.1409564, 143, 151, 147
0.8533234, 1.5069329, 3.1409564, 140, 146, 144
0.8533234, 1.5069329, 3.177268, 139, 146, 144
0.8170118, 1.5432445, 3.0683331, 136, 144, 143
0.8170118, 1.5432445, 3.1046448, 139, 147, 144
0.8170118, 1.5432445, 3.1409564, 146, 154, 152
0.8170118, 1.5432445, 3.177268, 149, 158, 156
0.8170118, 1.5795561, 3.1409564, 148, 157, 157
0.8170118, 1.5795561, 3.177268, 154, 163, 163
0.8533234, 1.5432445, 3.1409564, 146, 153, 150
0.8533234, 1.5432445, 3.177268, 144, 152, 149
0.7443885, 1.6158677, 2.99571, 144, 155, 152
0.7443885, 1.6158677, 3.0320215, 145, 156, 153
0.7443885, 1.6158677, 3.0683331, 138, 149, 148
0.7443885, 1.6158677, 3.1046448, 148, 158, 155
0.7443885, 1.6521794, 3.0683331, 136, 146, 145
0.7443885, 1.6521794, 3.1046448, 137, 147, 145
0.78070015, 1.6158677, 3.1046448, 148, 159, 155
0.7443885, 1.6158677, 3.1409564, 150, 160, 157
0.7443885, 1.6158677, 3.177268, 146, 156, 155
0.7443885, 1.6521794, 3.1409564, 139, 147, 145
0.7443885, 1.6521794, 3.177268, 138, 147, 146
0.78070015, 1.6158677, 3.1409564, 148, 158, 156
0.78070015, 1.6158677, 3.177268, 152, 162, 161
0.78070015, 1.6521794, 3.177268, 145, 154, 153
0.7443885, 1.688491, 3.1409564, 127, 135, 136
0.7443885, 1.688491, 3.177268, 135, 143, 145
0.78070015, 1.688491, 3.177268, 141, 149, 149
0.8170118, 1.6158677, 3.177268, 157, 166, 165
0.6717652, 1.7248026, 3.2135797, 161, 172, 173
0.70807683, 1.688491, 3.2135797, 141, 150, 155
0.70807683, 1.7248026, 3.2135797, 154, 164, 169
0.8533234, 1.5069329, 3.2135797, 136, 142, 140
0.8170118, 1.5432445, 3.2135797, 143, 152, 149
0.8170118, 1.5795561, 3.2135797, 146, 154, 151
0.8170118, 1.5795561, 3.2498913, 136, 144, 138
0.8533234, 1.5432445, 3.2135797, 136, 143, 138
0.8533234, 1.5432445, 3.2498913, 139, 145, 139
0.8533234, 1.5795561, 3.2135797, 134, 141, 136
0.8533234, 1.5795561, 3.2498913, 140, 148, 141
0.8533234, 1.5795561, 3.286203, 144, 152, 149
0.78070015, 1.6158677, 3.2135797, 151, 159, 156
0.78070015, 1.6521794, 3.2135797, 147, 155, 152
0.78070015, 1.6521794, 3.2498913, 137, 146, 143
0.78070015, 1.6521794, 3.286203, 143, 153, 153
0.7443885, 1.688491, 3.2135797, 144, 152, 153
0.7443885, 1.7248026, 3.2135797, 141, 149, 150
0.7443885, 1.7248026, 3.2498913, 112, 118, 113
0.78070015, 1.688491, 3.2135797, 146, 155, 154
0.78070015, 1.688491, 3.2498913, 134, 144, 140
0.78070015, 1.7248026, 3.2135797, 140, 148, 145
0.78070015, 1.7248026, 3.2498913, 120, 126, 122
0.7443885, 1.7248026, 3.286203, 133, 141, 140
0.78070015, 1.688491, 3.286203, 137, 146, 147
0.78070015, 1.7248026, 3.286203, 129, 136, 135
0.78070015, 1.7248026, 3.3225145, 135, 143, 142
0.8170118, 1.6158677, 3.2135797, 147, 156, 152
0.8170118, 1.6158677, 3.2498913, 138, 147, 142
0.8170118, 1.6521794, 3.2135797, 146, 154, 149
0.8170118, 1.6521794, 3.2498913, 139, 148, 145
0.8533234, 1.6158677, 3.2498913, 144, 153, 148
0.8170118, 1.6158677, 3.286203, 149, 158, 156
0.8170118, 1.6521794, 3.286203, 147, 157, 157
0.8170118, 1.6521794, 3.3225145, 147, 156, 155
0.8533234, 1.6158677, 3.286203, 148, 156, 153
0.8533234, 1.6158677, 3.3225145, 151, 160, 158
0.8533234, 1.6521794, 3.286203, 150, 159, 157
0.8533234, 1.6521794, 3.3225145, 148, 157, 156
0.8170118, 1.688491, 3.286203, 144, 153, 153
0.8170118, 1.688491, 3.3225145, 147, 155, 155
0.8170118, 1.7248026, 3.286203, 133, 140, 139
0.8170118, 1.7248026, 3.3225145, 144, 151, 151
0.8533234, 1.688491, 3.3225145, 147, 156, 155
0.8533234, 1.6521794, 3.3588262, 152, 161, 160
0.8170118, 1.688491, 3.3588262, 147, 156, 156
0.8170118, 1.7248026, 3.3588262, 149, 157, 155
0.8533234, 1.688491, 3.3588262, 150, 159, 157
0.8533234, 1.688491, 3.3951378, 152, 161, 157
0.8533234, 1.7248026, 3.3588262, 145, 153, 151
0.8533234, 1.7248026, 3.3951378, 149, 156, 152
0.9985699, 1.4343095, 3.0683331, 124, 125, 117
0.9985699, 1.4343095, 3.1046448, 122, 123, 114
0.9985699, 1.4343095, 3.1409564, 120, 121, 111
0.9985699, 1.4343095, 3.177268, 110, 110, 104
1.0348816, 1.4343095, 2.9230866, 121, 123, 110
1.0348816, 1.4343095, 2.9593983, 121, 124, 112
1.0711932, 1.3979979, 2.9230866, 127, 130, 121
1.0711932, 1.3979979, 2.9593983, 129, 132, 124
1.0711932, 1.4343095, 2.9230866, 127, 130, 119
1.0711932, 1.4343095, 2.9593983, 129, 132, 122
1.0348816, 1.4343095, 2.99571, 124, 125, 114
1.0348816, 1.4343095, 3.0320215, 126, 128, 117
1.0711932, 1.3979979, 2.99571, 131, 134, 126
1.0711932, 1.3979979, 3.0320215, 130, 133, 126
1.0711932, 1.4343095, 2.99571, 132, 134, 124
1.0711932, 1.4343095, 3.0320215, 132, 134, 124
1.1075048, 1.3616862, 2.9230866, 117, 119, 114
1.1075048, 1.3616862, 2.9593983, 121, 123, 119
1.1438165, 1.3253746, 2.9230866, 120, 121, 115
1.1438165, 1.3253746, 2.9593983, 128, 129, 123
1.1438165, 1.3616862, 2.9230866, 115, 117, 112
1.1438165, 1.3616862, 2.9593983, 121, 123, 118
1.1075048, 1.3616862, 2.99571, 126, 129, 123
1.1075048, 1.3616862, 3.0320215, 129, 130, 124
1.1438165, 1.3253746, 2.99571, 131, 132, 126
1.1438165, 1.3253746, 3.0320215, 128, 128, 122
1.1438165, 1.3616862, 2.99571, 127, 128, 122
1.1438165, 1.3616862, 3.0320215, 127, 127, 121
1.1075048, 1.3979979, 2.9230866, 120, 124, 116
1.1075048, 1.3979979, 2.9593983, 126, 129, 123
1.1075048, 1.3979979, 2.99571, 127, 130, 125
1.1075048, 1.3979979, 3.0320215, 129, 131, 125
1.0348816, 1.4343095, 3.0683331, 129, 130, 119
1.0348816, 1.4343095, 3.1046448, 128, 129, 117
1.0711932, 1.3979979, 3.0683331, 128, 131, 123
1.0711932, 1.3979979, 3.1046448, 133, 136, 126
1.0711932, 1.4343095, 3.0683331, 129, 132, 122
1.0711932, 1.4343095, 3.1046448, 129, 131, 120
1.0348816, 1.4343095, 3.1409564, 107, 107, 96
1.0348816, 1.4343095, 3.177268, 116, 117, 110
1.0711932, 1.3979979, 3.1409564, 107, 109, 100
1.0711932, 1.3979979, 3.177268, 126, 128, 121
1.0711932, 1.4343095, 3.1409564, 104, 105, 94
1.0711932, 1.4343095, 3.177268, 118, 120, 113
1.1075048, 1.3616862, 3.0683331, 132, 133, 127
1.1075048, 1.3616862, 3.1046448, 139, 140, 132
1.1438165, 1.3253746, 3.0683331, 129, 128, 122
1.1438165, 1.3616862, 3.0683331, 130, 130, 124
1.1438165, 1.3616862, 3.1046448, 130, 130, 123
1.1075048, 1.3616862, 3.1409564, 119, 120, 111
1.1075048, 1.3616862, 3.177268, 134, 136, 128
1.1438165, 1.3616862, 3.1409564, 116, 116, 108
1.1438165, 1.3616862, 3.177268, 126, 126, 118
1.1075048, 1.3979979, 3.0683331, 133, 135, 128
1.1075048, 1.3979979, 3.1046448, 139, 141, 132
1.1075048, 1.3979979, 3.1409564, 118, 119, 110
1.1075048, 1.3979979, 3.177268, 132, 134, 125
0.9985699, 1.4343095, 3.2135797, 128, 129, 125
1.1438165, 1.289063, 3.4314494, 125, 131, 120
1.1438165, 1.289063, 3.467761, 138, 145, 133
1.0348816, 1.4343095, 3.2135797, 134, 136, 130
1.0348816, 1.4343095, 3.2498913, 132, 134, 128
1.0711932, 1.3979979, 3.2135797, 135, 137, 129
1.0711932, 1.4343095, 3.2135797, 135, 137, 131
1.0711932, 1.4343095, 3.2498913, 139, 142, 132
1.0711932, 1.4343095, 3.286203, 144, 147, 134
1.1075048, 1.3616862, 3.2135797, 129, 131, 122
1.1438165, 1.3616862, 3.2135797, 126, 126, 117
1.1438165, 1.3616862, 3.2498913, 143, 144, 135
1.1438165, 1.3616862, 3.286203, 152, 154, 143
1.1075048, 1.3979979, 3.2135797, 130, 132, 122
1.1075048, 1.3979979, 3.2498913, 141, 143, 133
1.1075048, 1.4343095, 3.2135797, 134, 136, 127
1.1075048, 1.4343095, 3.2498913, 144, 147, 135
1.1438165, 1.3979979, 3.2135797, 122, 123, 114
1.1438165, 1.3979979, 3.2498913, 143, 145, 136
1.1075048, 1.3979979, 3.286203, 153, 156, 144
1.1075048, 1.3979979, 3.3225145, 154, 159, 145
1.1075048, 1.4343095, 3.286203, 152, 156, 142
1.1075048, 1.4343095, 3.3225145, 151, 156, 140
1.1438165, 1.3979979, 3.286203, 153, 156, 144
1.1438165, 1.3979979, 3.3225145, 147, 150, 137
1.1438165, 1.4343095, 3.3225145, 150, 155, 140
1.1438165, 1.3253746, 3.3951378, 128, 134, 126
1.1438165, 1.3616862, 3.3588262, 118, 122, 110
1.1438165, 1.3616862, 3.3951378, 138, 147, 136
1.1075048, 1.3616862, 3.4314494, 158, 168, 158
1.1075048, 1.3616862, 3.467761, 165, 175, 165
1.1438165, 1.3253746, 3.4314494, 144, 153, 144
1.1438165, 1.3253746, 3.467761, 147, 157, 147
1.1438165, 1.3616862, 3.4314494, 156, 167, 157
1.1438165, 1.3616862, 3.467761, 164, 174, 164
1.1075048, 1.3979979, 3.3951378, 141, 149, 135
1.1075048, 1.4343095, 3.3588262, 143, 148, 131
1.1075048, 1.4343095, 3.3951378, 125, 132, 117
1.1438165, 1.3979979, 3.3588262, 136, 143, 127
1.1438165, 1.3979979, 3.3951378, 141, 149, 135
1.1438165, 1.4343095, 3.3588262, 140, 146, 129
1.1438165, 1.4343095, 3.3951378, 124, 130, 115
1.1075048, 1.3979979, 3.4314494, 145, 154, 141
1.1075048, 1.3979979, 3.467761, 147, 156, 144
1.1075048, 1.4343095, 3.4314494, 117, 123, 108
1.1075048, 1.4343095, 3.467761, 116, 121, 108
1.1438165, 1.3979979, 3.4314494, 151, 161, 148
1.1438165, 1.4343095, 3.4314494, 112, 118, 102
0.889635, 1.4706212, 2.9230866, 109, 111, 105
0.889635, 1.4706212, 2.9593983, 115, 117, 112
0.92594665, 1.4706212, 2.9230866, 106, 106, 100
0.92594665, 1.4706212, 2.9593983, 111, 112, 106
0.889635, 1.4706212, 2.99571, 118, 120, 117
0.889635, 1.4706212, 3.0320215, 127, 131, 129
0.92594665, 1.4706212, 2.99571, 116, 117, 113
0.92594665, 1.4706212, 3.0320215, 122, 124, 121
0.9622583, 1.4706212, 2.9230866, 105, 105, 99
0.9622583, 1.4706212, 2.9593983, 112, 112, 106
0.9985699, 1.4706212, 2.9230866, 108, 107, 99
0.9985699, 1.4706212, 2.9593983, 113, 112, 105
0.9622583, 1.4706212, 2.99571, 118, 118, 113
0.9622583, 1.4706212, 3.0320215, 120, 120, 116
0.9985699, 1.4706212, 2.99571, 119, 118, 111
0.9985699, 1.4706212, 3.0320215, 122, 121, 115
0.889635, 1.4706212, 3.0683331, 132, 137, 136
0.889635, 1.4706212, 3.1046448, 135, 140, 139
0.92594665, 1.4706212, 3.0683331, 128, 130, 128
0.92594665, 1.4706212, 3.1046448, 133, 136, 135
0.889635, 1.4706212, 3.1409564, 142, 147, 146
0.889635, 1.4706212, 3.177268, 145, 150, 148
0.889635, 1.5069329, 3.1409564, 142, 147, 146
0.889635, 1.5069329, 3.177268, 143, 148, 146
0.92594665, 1.4706212, 3.1409564, 139, 142, 141
0.92594665, 1.4706212, 3.177268, 138, 142, 139
0.92594665, 1.5069329, 3.177268, 138, 143, 139
0.9622583, 1.4706212, 3.0683331, 122, 123, 120
0.9622583, 1.4706212, 3.1046448, 126, 127, 124
0.9985699, 1.4706212, 3.0683331, 123, 124, 118
0.9985699, 1.4706212, 3.1046448, 123, 123, 117
0.9622583, 1.4706212, 3.1409564, 131, 133, 130
0.9622583, 1.4706212, 3.177268, 123, 126, 120
0.9985699, 1.4706212, 3.1409564, 123, 124, 116
0.9985699, 1.4706212, 3.177268, 109, 109, 102
1.0348816, 1.4706212, 2.9230866, 109, 110, 97
1.0348816, 1.4706212, 2.9593983, 112, 113, 101
1.0711932, 1.4706212, 2.9230866, 118, 120, 107
1.0348816, 1.4706212, 2.99571, 118, 118, 108
1.0348816, 1.4706212, 3.0320215, 123, 123, 113
1.0348816, 1.4706212, 3.0683331, 125, 126, 116
1.0348816, 1.4706212, 3.1046448, 125, 126, 115
1.0348816, 1.4706212, 3.1409564, 118, 118, 107
0.889635, 1.5069329, 3.2135797, 133, 139, 136
0.889635, 1.5069329, 3.2498913, 140, 147, 145
0.92594665, 1.4706212, 3.2135797, 127, 131, 128
0.92594665, 1.5069329, 3.2135797, 129, 133, 130
0.92594665, 1.5069329, 3.2498913, 139, 144, 143
0.92594665, 1.5069329, 3.286203, 145, 151, 149
0.889635, 1.5432445, 3.2135797, 137, 144, 139
0.889635, 1.5432445, 3.2498913, 144, 150, 147
0.889635, 1.5795561, 3.2498913, 139, 146, 142
0.92594665, 1.5432445, 3.2498913, 144, 150, 149
0.889635, 1.5432445, 3.286203, 142, 149, 147
0.889635, 1.5795561, 3.286203, 141, 147, 146
0.889635, 1.5795561, 3.3225145, 145, 153, 151
0.92594665, 1.5432445, 3.286203, 146, 152, 151
0.92594665, 1.5432445, 3.3225145, 145, 151, 150
0.92594665, 1.5795561, 3.286203, 145, 152, 151
0.92594665, 1.5795561, 3.3225145, 146, 152, 151
0.9622583, 1.4706212, 3.2135797, 126, 129, 126
0.9622583, 1.4706212, 3.2498913, 137, 140, 137
0.9622583, 1.5069329, 3.2498913, 140, 144, 142
0.9985699, 1.4706212, 3.2135797, 129, 131, 126
0.9985699, 1.4706212, 3.2498913, 138, 141, 135
0.9985699, 1.5069329, 3.2498913, 145, 149, 142
0.9622583, 1.5069329, 3.286203, 145, 150, 146
0.9622583, 1.5069329, 3.3225145, 144, 148, 143
0.9985699, 1.4706212, 3.286203, 149, 153, 146
0.9985699, 1.5069329, 3.286203, 149, 153, 146
0.9985699, 1.5069329, 3.3225145, 142, 145, 137
0.9622583, 1.5432445, 3.286203, 147, 151, 148
0.9622583, 1.5432445, 3.3225145, 143, 147, 142
0.9622583, 1.5795561, 3.3225145, 142, 147, 142
0.9985699, 1.5432445, 3.3225145, 141, 144, 136
0.92594665, 1.5795561, 3.3588262, 146, 153, 149
0.9622583, 1.5432445, 3.3588262, 144, 148, 141
0.9622583, 1.5795561, 3.3588262, 146, 150, 143
0.9985699, 1.5432445, 3.3588262, 143, 146, 136
0.9985699, 1.5795561, 3.3588262, 147, 150, 140
0.9985699, 1.5795561, 3.3951378, 147, 150, 140
0.889635, 1.6158677, 3.286203, 145, 153, 151
0.889635, 1.6158677, 3.3225145, 149, 158, 156
0.889635, 1.6521794, 3.3225145, 149, 158, 156
0.92594665, 1.6158677, 3.3225145, 147, 155, 154
0.889635, 1.6158677, 3.3588262, 150, 158, 157
0.889635, 1.6521794, 3.3588262, 150, 159, 157
0.889635, 1.6521794, 3.3951378, 149, 158, 155
0.92594665, 1.6158677, 3.3588262, 148, 155, 151
0.92594665, 1.6158677, 3.3951378, 148, 154, 148
0.92594665, 1.6521794, 3.3588262, 146, 154, 150
0.92594665, 1.6521794, 3.3951378, 144, 149, 143
0.889635, 1.688491, 3.3588262, 153, 163, 160
0.889635, 1.688491, 3.3951378, 155, 164, 158
0.889635, 1.7248026, 3.3951378, 155, 164, 158
0.92594665, 1.688491, 3.3951378, 145, 150, 142
0.92594665, 1.7248026, 3.3951378, 146, 153, 145
0.889635, 1.7248026, 3.4314494, 146, 154, 146
0.889635, 1.7248026, 3.467761, 106, 114, 101
0.92594665, 1.688491, 3.4314494, 148, 153, 142
0.92594665, 1.7248026, 3.4314494, 140, 146, 135
0.92594665, 1.7248026, 3.467761, 121, 127, 113
0.9622583, 1.6158677, 3.3588262, 148, 152, 144
0.9622583, 1.6158677, 3.3951378, 144, 147, 138
0.9622583, 1.6521794, 3.3951378, 140, 142, 133
0.9985699, 1.6158677, 3.3588262, 147, 151, 141
0.9985699, 1.6158677, 3.3951378, 146, 150, 141
0.9622583, 1.6521794, 3.4314494, 141, 144, 135
0.9622583, 1.6521794, 3.467761, 141, 146, 135
0.9985699, 1.6158677, 3.4314494, 148, 152, 143
0.9985699, 1.6521794, 3.4314494, 139, 141, 132
0.9985699, 1.6521794, 3.467761, 138, 142, 131
0.9622583, 1.688491, 3.4314494, 152, 157, 147
0.9622583, 1.688491, 3.467761, 136, 141, 130
0.9622583, 1.7248026, 3.4314494, 149, 154, 141
0.9622583, 1.7248026, 3.467761, 130, 135, 122
0.9985699, 1.688491, 3.467761, 133, 138, 127
1.0348816, 1.4706212, 3.2135797, 132, 134, 129
1.0348816, 1.4706212, 3.2498913, 138, 140, 133
1.0711932, 1.4706212, 3.2498913, 137, 140, 131
1.0348816, 1.4706212, 3.286203, 145, 148, 140
1.0348816, 1.4706212, 3.3225145, 142, 144, 134
1.0348816, 1.5069329, 3.286203, 146, 149, 141
1.0348816, 1.5069329, 3.3225145, 141, 143, 132
1.0711932, 1.4706212, 3.286203, 142, 145, 133
1.0711932, 1.4706212, 3.3225145, 150, 152, 136
1.0711932, 1.5069329, 3.3225145, 151, 152, 136
1.1075048, 1.4706212, 3.286203, 145, 150, 134
1.1075048, 1.4706212, 3.3225145, 149, 153, 135
1.0348816, 1.5069329, 3.3588262, 144, 145, 130
1.0711932, 1.4706212, 3.3588262, 155, 156, 138
1.0711932, 1.5069329, 3.3588262, 155, 156, 138
1.0711932, 1.5069329, 3.3951378, 153, 156, 137
1.0348816, 1.5432445, 3.3588262, 146, 147, 133
1.0348816, 1.5432445, 3.3951378, 154, 156, 142
1.0348816, 1.5795561, 3.3588262, 147, 149, 136
1.0348816, 1.5795561, 3.3951378, 153, 155, 143
1.0711932, 1.5432445, 3.3588262, 154, 155, 138
1.0711932, 1.5432445, 3.3951378, 155, 157, 141
1.0711932, 1.5795561, 3.3951378, 157, 159, 145
1.0348816, 1.5795561, 3.4314494, 151, 154, 141
1.0711932, 1.5432445, 3.4314494, 150, 151, 134
1.0711932, 1.5795561, 3.4314494, 146, 147, 131
1.0711932, 1.5795561, 3.467761, 130, 130, 111
1.1075048, 1.4706212, 3.3588262, 148, 153, 130
1.1075048, 1.5069329, 3.3588262, 153, 157, 134
1.1075048, 1.5069329, 3.3951378, 144, 148, 121
1.1438165, 1.4706212, 3.3588262, 136, 140, 116
1.1438165, 1.4706212, 3.3951378, 118, 122, 95
1.1438165, 1.5069329, 3.3588262, 137, 141, 114
1.1438165, 1.5069329, 3.3951378, 125, 128, 99
1.1075048, 1.4706212, 3.4314494, 95, 97, 83
1.1075048, 1.4706212, 3.467761, 99, 101, 87
1.1438165, 1.5069329, 3.4314494, 113, 115, 88
1.1075048, 1.5432445, 3.3951378, 144, 145, 123
1.1075048, 1.5432445, 3.4314494, 129, 128, 105
1.1075048, 1.5432445, 3.467761, 111, 109, 87
1.1075048, 1.5795561, 3.4314494, 127, 125, 104
1.1075048, 1.5795561, 3.467761, 106, 104, 86
1.1438165, 1.5432445, 3.4314494, 111, 111, 86
1.1438165, 1.5432445, 3.467761, 98, 98, 77
1.1438165, 1.5795561, 3.467761, 93, 90, 75
1.0348816, 1.6158677, 3.3951378, 151, 155, 145
1.0348816, 1.6158677, 3.4314494, 147, 150, 139
1.0348816, 1.6158677, 3.467761, 139, 142, 128
1.0348816, 1.6521794, 3.4314494, 145, 150, 139
1.0348816, 1.6521794, 3.467761, 140, 145, 130
1.0711932, 1.6158677, 3.4314494, 137, 139, 124
1.0711932, 1.6158677, 3.467761, 124, 126, 109
1.1075048, 1.6158677, 3.467761, 101, 100, 84
0.6354536, 1.7611142, 2.378412, 76, 82, 74
0.6354536, 1.7974259, 2.378412, 61, 67, 60
0.6717652, 1.7611142, 2.3421004, 94, 104, 92
0.6717652, 1.7611142, 2.378412, 92, 99, 89
0.6717652, 1.7974259, 2.378412, 65, 71, 64
0.6717652, 1.7611142, 2.4147236, 102, 109, 99
0.6717652, 1.7611142, 2.4510353, 109, 116, 105
0.6717652, 1.7974259, 2.4147236, 74, 80, 73
0.6717652, 1.7974259, 2.4510353, 99, 105, 96
0.6354536, 1.7974259, 2.487347, 94, 103, 88
0.6354536, 1.7974259, 2.5236585, 99, 107, 91
0.6354536, 1.7974259, 2.5599701, 104, 113, 97
0.6354536, 1.7974259, 2.5962818, 99, 108, 90
0.6354536, 1.8337375, 2.5599701, 101, 108, 92
0.6354536, 1.8337375, 2.5962818, 96, 105, 86
0.6354536, 1.8700491, 2.5962818, 88, 96, 77
0.6717652, 1.7611142, 2.487347, 105, 112, 98
0.6717652, 1.7611142, 2.5236585, 108, 115, 99
0.6717652, 1.7974259, 2.487347, 99, 108, 93
0.6717652, 1.7974259, 2.5236585, 103, 111, 95
0.6717652, 1.7611142, 2.5599701, 105, 113, 92
0.6717652, 1.7611142, 2.5962818, 102, 109, 86
0.6717652, 1.7974259, 2.5599701, 105, 114, 98
0.6717652, 1.7974259, 2.5962818, 97, 105, 86
0.6717652, 1.8337375, 2.5962818, 96, 105, 87
0.6354536, 1.9063607, 2.5962818, 93, 99, 80
0.6354536, 1.9426724, 2.5962818, 87, 94, 76
0.6354536, 1.7974259, 2.6325934, 89, 96, 78
0.6354536, 1.7974259, 2.668905, 90, 97, 77
0.6354536, 1.7611142, 2.7052166, 87, 95, 78
0.6354536, 1.7974259, 2.7052166, 94, 103, 83
0.6354536, 1.8337375, 2.6325934, 94, 103, 83
0.6354536, 1.8337375, 2.668905, 97, 106, 84
0.6354536, 1.8700491, 2.6325934, 94, 102, 82
0.6717652, 1.7611142, 2.6325934, 87, 92, 73
0.6717652, 1.7611142, 2.668905, 69, 71, 59
0.6717652, 1.7974259, 2.6325934, 82, 87, 70
0.6717652, 1.7974259, 2.668905, 78, 83, 67
0.70807683, 1.7974259, 2.668905, 75, 79, 65
0.6717652, 1.7611142, 2.7052166, 78, 83, 69
0.6717652, 1.7611142, 2.7415283, 96, 104, 87
0.6717652, 1.7974259, 2.7052166, 90, 98, 78
0.6717652, 1.8337375, 2.6325934, 92, 100, 81
0.70807683, 1.8337375, 2.668905, 77, 81, 67
0.6354536, 1.7611142, 2.8141515, 116, 127, 109
0.6354536, 1.7974259, 2.77784, 118, 130, 110
0.6354536, 1.7974259, 2.8141515, 112, 124, 107
0.6354536, 1.7611142, 2.8504632, 123, 134, 112
0.6354536, 1.7611142, 2.8867748, 114, 126, 106
0.6354536, 1.7974259, 2.8867748, 106, 117, 101
0.6717652, 1.7611142, 2.8141515, 118, 128, 112
0.6717652, 1.7611142, 2.8504632, 123, 134, 114
0.6717652, 1.7611142, 2.8867748, 108, 118, 103
0.6717652, 1.7974259, 2.8867748, 102, 113, 96
0.6354536, 1.9063607, 2.6325934, 100, 104, 83
0.9985699, 1.9063607, 2.3421004, 65, 56, 56
0.9985699, 1.9426724, 2.3421004, 60, 52, 53
1.0348816, 1.7611142, 2.3421004, 97, 89, 89
1.0348816, 1.7611142, 2.378412, 102, 93, 93
1.0348816, 1.7974259, 2.3421004, 72, 65, 65
1.0348816, 1.7974259, 2.378412, 71, 64, 66
1.0711932, 1.7611142, 2.3421004, 99, 91, 91
1.0711932, 1.7611142, 2.378412, 102, 93, 93
1.0711932, 1.7974259, 2.3421004, 66, 60, 61
1.0711932, 1.7974259, 2.378412, 67, 61, 63
1.0348816, 1.7611142, 2.4147236, 98, 89, 89
1.0348816, 1.7974259, 2.4147236, 64, 58, 61
1.0711932, 1.7611142, 2.4147236, 94, 85, 85
1.0711932, 1.7611142, 2.4510353, 82, 74, 76
1.0711932, 1.7974259, 2.4147236, 63, 57, 61
1.0711932, 1.7974259, 2.4510353, 55, 50, 55
1.0348816, 1.8337375, 2.3421004, 85, 75, 73
1.0348816, 1.8337375, 2.378412, 69, 61, 62
1.0348816, 1.8700491, 2.3421004, 80, 69, 67
1.0348816, 1.8700491, 2.378412, 76, 67, 66
1.0711932, 1.8337375, 2.378412, 62, 54, 57
1.0348816, 1.8337375, 2.4147236, 55, 48, 52
1.0348816, 1.8700491, 2.4147236, 62, 55, 57
1.0711932, 1.8337375, 2.4147236, 55, 49, 53
1.0711932, 1.8337375, 2.4510353, 51, 46, 52
1.0711932, 1.8700491, 2.4147236, 61, 57, 58
1.0711932, 1.8700491, 2.4510353, 55, 51, 55
1.0348816, 1.7611142, 2.5236585, 78, 71, 72
1.0711932, 1.7611142, 2.487347, 74, 67, 69
1.0711932, 1.7611142, 2.5236585, 64, 58, 60
1.0711932, 1.7974259, 2.487347, 54, 49, 55
1.0711932, 1.7974259, 2.5236585, 50, 45, 49
1.0711932, 1.7611142, 2.5599701, 59, 54, 57
1.0711932, 1.7611142, 2.5962818, 65, 59, 61
1.0711932, 1.7974259, 2.5599701, 44, 39, 45
1.0711932, 1.8337375, 2.487347, 50, 45, 51
1.1075048, 1.7611142, 2.5599701, 44, 41, 46
1.0348816, 1.9063607, 2.3421004, 71, 61, 61
1.0348816, 1.9063607, 2.378412, 75, 65, 64
1.0348816, 1.9426724, 2.378412, 72, 62, 62
0.6354536, 1.7611142, 2.9230866, 94, 103, 92
0.6354536, 1.7611142, 2.9593983, 104, 114, 103
0.6354536, 1.7974259, 2.9230866, 98, 109, 98
0.6354536, 1.7974259, 2.9593983, 118, 129, 117
0.59914196, 1.7611142, 3.0320215, 113, 123, 111
0.6354536, 1.7611142, 2.99571, 109, 119, 109
0.6354536, 1.7611142, 3.0320215, 108, 118, 107
0.6354536, 1.7974259, 2.99571, 110, 120, 109
0.6717652, 1.7611142, 2.9230866, 93, 101, 90
0.6717652, 1.7611142, 2.9593983, 94, 101, 90
0.6354536, 1.7611142, 3.0683331, 119, 130, 124
0.6354536, 1.7611142, 3.1046448, 135, 147, 141
0.6354536, 1.7974259, 3.1046448, 150, 162, 153
0.6354536, 1.7611142, 3.1409564, 137, 149, 145
0.6354536, 1.7611142, 3.177268, 146, 160, 162
0.6354536, 1.7974259, 3.177268, 158, 172, 174
0.6717652, 1.7611142, 3.177268, 157, 170, 171
0.6717652, 1.7974259, 3.177268, 167, 180, 182
0.70807683, 1.978984, 3.1409564, 132, 142, 137
0.70807683, 1.978984, 3.177268, 135, 146, 142
0.70807683, 2.0152957, 3.1409564, 129, 138, 132
0.7443885, 1.9426724, 3.177268, 143, 153, 149
0.7443885, 1.978984, 3.177268, 138, 149, 145
0.7443885, 2.0152957, 3.177268, 161, 170, 165
0.6717652, 1.7611142, 3.2135797, 167, 180, 182
0.6717652, 1.7974259, 3.2135797, 173, 186, 188
0.70807683, 1.7611142, 3.2135797, 153, 165, 167
0.70807683, 1.7611142, 3.2498913, 133, 143, 142
0.70807683, 1.7974259, 3.2135797, 164, 176, 178
0.70807683, 1.7974259, 3.2498913, 156, 167, 164
0.70807683, 1.7611142, 3.286203, 153, 162, 164
0.70807683, 1.7974259, 3.286203, 173, 183, 181
0.7443885, 1.7611142, 3.2135797, 131, 139, 137
0.7443885, 1.7611142, 3.2498913, 121, 128, 126
0.7443885, 1.7611142, 3.286203, 148, 157, 156
0.7443885, 1.7974259, 3.286203, 154, 162, 160
0.78070015, 1.7611142, 3.286203, 141, 149, 145
0.78070015, 1.7611142, 3.3225145, 129, 137, 133
0.78070015, 1.7974259, 3.286203, 140, 149, 143
0.78070015, 1.7974259, 3.3225145, 123, 132, 123
0.7443885, 1.8337375, 3.286203, 143, 151, 149
0.7443885, 1.8337375, 3.3225145, 135, 145, 142
0.78070015, 1.8337375, 3.286203, 135, 143, 139
0.78070015, 1.8337375, 3.3225145, 129, 139, 132
0.78070015, 1.8700491, 3.3225145, 150, 160, 159
0.8170118, 1.7611142, 3.3225145, 144, 152, 150
0.78070015, 1.7611142, 3.3588262, 148, 156, 154
0.78070015, 1.7974259, 3.3588262, 156, 166, 163
0.78070015, 1.7974259, 3.3951378, 167, 176, 174
0.78070015, 1.8337375, 3.3588262, 149, 159, 155
0.78070015, 1.8700491, 3.3588262, 153, 162, 161
0.8170118, 1.7611142, 3.3588262, 149, 156, 152
0.8170118, 1.7611142, 3.3951378, 143, 150, 145
0.8170118, 1.7974259, 3.3588262, 155, 163, 160
0.8170118, 1.7974259, 3.3951378, 148, 156, 152
0.8533234, 1.7611142, 3.3588262, 143, 150, 146
0.8533234, 1.7611142, 3.3951378, 145, 152, 145
0.8533234, 1.7974259, 3.3951378, 144, 151, 145
0.8533234, 1.7611142, 3.4314494, 150, 157, 149
0.8533234, 1.7974259, 3.4314494, 144, 150, 142
0.8170118, 1.8337375, 3.3588262, 153, 162, 160
0.8170118, 1.8337375, 3.3951378, 150, 158, 155
0.8170118, 1.8700491, 3.3588262, 154, 163, 163
0.8170118, 1.8700491, 3.3951378, 150, 158, 156
0.8533234, 1.8337375, 3.3951378, 148, 156, 151
0.8533234, 1.8700491, 3.3951378, 148, 156, 150
0.8170118, 1.8700491, 3.4314494, 146, 154, 149
0.8533234, 1.8337375, 3.4314494, 140, 147, 138
0.8533234, 1.8700491, 3.4314494, 139, 146, 137
0.8533234, 1.8700491, 3.467761, 124, 131, 116
0.7443885, 1.9426724, 3.2135797, 145, 153, 147
0.7443885, 1.9426724, 3.2498913, 141, 148, 139
0.7443885, 1.9063607, 3.286203, 151, 161, 157
0.7443885, 1.9063607, 3.3225145, 156, 166, 165
0.7443885, 1.9426724, 3.286203, 142, 152, 145
0.7443885, 1.9426724, 3.3225145, 158, 169, 167
0.78070015, 1.9063607, 3.3225145, 153, 162, 161
0.78070015, 1.9426724, 3.3225145, 156, 166, 165
0.7443885, 1.978984, 3.2135797, 144, 153, 147
0.7443885, 1.978984, 3.2498913, 144, 151, 144
0.7443885, 2.0152957, 3.2135797, 161, 172, 169
0.7443885, 2.0152957, 3.2498913, 155, 163, 157
0.7443885, 1.978984, 3.286203, 152, 161, 158
0.7443885, 1.978984, 3.3225145, 158, 169, 168
0.7443885, 2.0152957, 3.286203, 159, 168, 161
0.7443885, 2.0152957, 3.3225145, 164, 176, 175
0.78070015, 1.978984, 3.3225145, 156, 167, 166
0.78070015, 2.0152957, 3.3225145, 160, 171, 169
0.78070015, 1.9063607, 3.3588262, 152, 160, 159
0.78070015, 1.9063607, 3.3951378, 155, 163, 162
0.78070015, 1.9426724, 3.3588262, 155, 164, 162
0.78070015, 1.9426724, 3.3951378, 155, 163, 160
0.78070015, 1.978984, 3.3588262, 156, 165, 163
0.78070015, 1.978984, 3.3951378, 152, 159, 155
0.78070015, 2.0152957, 3.3588262, 155, 164, 162
0.78070015, 2.0152957, 3.3951378, 149, 156, 151
0.8170118, 1.9063607, 3.3951378, 152, 159, 156
0.8170118, 1.9426724, 3.3951378, 149, 156, 150
0.8170118, 1.9063607, 3.4314494, 147, 154, 148
0.8170118, 1.9426724, 3.4314494, 148, 156, 146
0.8170118, 1.9426724, 3.467761, 107, 115, 101
0.8533234, 1.9063607, 3.4314494, 132, 139, 129
0.8533234, 1.9063607, 3.467761, 108, 115, 99
0.8533234, 1.9426724, 3.4314494, 128, 135, 121
0.8533234, 1.9426724, 3.467761, 104, 112, 96
0.8170118, 1.978984, 3.3951378, 147, 154, 146
0.8170118, 2.0152957, 3.3951378, 142, 148, 141
0.8170118, 1.978984, 3.4314494, 150, 157, 146
0.8170118, 1.978984, 3.467761, 115, 121, 109
0.8170118, 2.0152957, 3.4314494, 146, 151, 141
0.8170118, 2.0152957, 3.467761, 128, 133, 121
0.7443885, 2.0516074, 3.177268, 173, 182, 178
0.7443885, 2.0516074, 3.2135797, 165, 175, 173
0.7443885, 2.0516074, 3.2498913, 156, 165, 160
0.7443885, 2.087919, 3.2498913, 156, 165, 157
0.7443885, 2.0516074, 3.286203, 154, 163, 159
0.7443885, 2.0516074, 3.3225145, 162, 173, 172
0.7443885, 2.087919, 3.286203, 134, 141, 133
0.78070015, 2.0516074, 3.286203, 148, 157, 151
0.78070015, 2.0516074, 3.3225145, 156, 166, 164
0.78070015, 2.087919, 3.286203, 138, 144, 136
0.78070015, 2.087919, 3.3225145, 152, 161, 158
0.7443885, 2.1242306, 3.2498913, 158, 167, 160
0.78070015, 2.1242306, 3.286203, 152, 159, 149
0.78070015, 2.1242306, 3.3225145, 165, 172, 168
0.78070015, 2.0516074, 3.3588262, 156, 164, 162
0.78070015, 2.0516074, 3.3951378, 154, 160, 155
0.78070015, 2.087919, 3.3588262, 157, 165, 161
0.78070015, 2.087919, 3.3951378, 150, 155, 150
0.78070015, 2.1242306, 3.3588262, 168, 175, 170
0.78070015, 2.1605422, 3.3588262, 165, 173, 168
0.8170118, 2.0516074, 3.3951378, 147, 153, 147
0.8170118, 2.087919, 3.3951378, 145, 149, 145
0.8170118, 2.0516074, 3.4314494, 143, 148, 140
0.8170118, 2.0516074, 3.467761, 140, 145, 135
0.8170118, 2.087919, 3.4314494, 134, 138, 132
0.8533234, 2.0516074, 3.4314494, 145, 150, 140
0.8533234, 2.0516074, 3.467761, 143, 148, 137
0.8533234, 2.087919, 3.4314494, 125, 128, 121
0.8533234, 2.087919, 3.467761, 122, 126, 118
0.8170118, 2.1242306, 3.3951378, 135, 139, 136
0.8170118, 2.1605422, 3.3588262, 154, 162, 159
0.8170118, 2.1605422, 3.3951378, 140, 146, 144
0.8170118, 2.1242306, 3.4314494, 128, 132, 126
0.8533234, 2.1242306, 3.4314494, 120, 123, 116
0.8533234, 2.1242306, 3.467761, 115, 118, 110
0.8533234, 2.1605422, 3.4314494, 120, 124, 116
0.8533234, 2.1605422, 3.467761, 111, 116, 103
0.8533234, 2.1968539, 3.467761, 117, 121, 108
0.889635, 1.7611142, 3.3951378, 155, 163, 155
0.889635, 1.7611142, 3.4314494, 140, 147, 137
0.889635, 1.7611142, 3.467761, 109, 118, 104
0.889635, 1.7974259, 3.4314494, 134, 141, 128
0.889635, 1.7974259, 3.467761, 116, 124, 109
0.92594665, 1.7611142, 3.4314494, 130, 137, 126
0.92594665, 1.7611142, 3.467761, 112, 120, 107
0.889635, 1.8337375, 3.4314494, 128, 135, 122
0.889635, 1.8337375, 3.467761, 114, 122, 105
0.889635, 1.8700491, 3.467761, 117, 124, 106
0.889635, 1.9063607, 3.467761, 111, 117, 98
0.8533234, 1.7248026, 3.576696, 124, 132, 124
0.8533234, 1.7248026, 3.758254, 96, 104, 88
0.8533234, 1.7248026, 3.7945657, 117, 126, 112
0.8533234, 1.688491, 3.9398122, 79, 82, 71
0.8533234, 1.688491, 3.9761238, 93, 98, 86
0.8533234, 1.7248026, 3.9398122, 77, 80, 70
0.8533234, 1.7248026, 3.9761238, 95, 101, 87
0.8170118, 1.7248026, 4.0124354, 136, 144, 134
0.8533234, 1.688491, 4.0124354, 115, 121, 112
0.8533234, 1.688491, 4.048747, 126, 133, 123
0.8533234, 1.7248026, 4.0124354, 131, 138, 128
0.8533234, 1.7248026, 4.048747, 136, 143, 134
1.1438165, 1.289063, 3.5040727, 140, 145, 130
1.1075048, 1.1801281, 3.758254, 97, 103, 97
1.1075048, 1.2164397, 3.758254, 102, 110, 103
1.1438165, 1.1801281, 3.758254, 90, 95, 88
1.1438165, 1.2164397, 3.758254, 82, 87, 81
1.1075048, 1.2527514, 3.758254, 99, 109, 102
1.0711932, 1.4343095, 3.5403843, 112, 115, 100
1.0711932, 1.4343095, 3.576696, 112, 115, 99
1.0711932, 1.4343095, 3.6130075, 111, 114, 98
1.1075048, 1.3616862, 3.5040727, 161, 171, 159
1.1075048, 1.3616862, 3.5403843, 154, 163, 150
1.1438165, 1.3253746, 3.5040727, 141, 147, 134
1.1438165, 1.3253746, 3.5403843, 136, 139, 124
1.1438165, 1.3616862, 3.5040727, 155, 165, 154
1.1438165, 1.3616862, 3.5403843, 148, 156, 143
1.1075048, 1.3616862, 3.576696, 151, 158, 143
1.1075048, 1.3616862, 3.6130075, 144, 148, 132
1.1438165, 1.3253746, 3.576696, 132, 133, 116
1.1438165, 1.3616862, 3.576696, 138, 141, 124
1.1438165, 1.3616862, 3.6130075, 130, 129, 108
1.1075048, 1.3979979, 3.5040727, 146, 154, 142
1.1075048, 1.3979979, 3.5403843, 146, 152, 140
1.1075048, 1.4343095, 3.5040727, 120, 125, 111
1.1075048, 1.4343095, 3.5403843, 123, 126, 112
1.1075048, 1.3979979, 3.576696, 152, 157, 142
1.1075048, 1.3979979, 3.6130075, 145, 149, 132
1.1075048, 1.4343095, 3.576696, 130, 133, 118
1.1075048, 1.4343095, 3.6130075, 128, 131, 116
1.1438165, 1.3979979, 3.6130075, 130, 129, 106
1.0348816, 1.4343095, 3.6856308, 95, 98, 81
1.0711932, 1.3979979, 3.6493192, 126, 130, 116
1.0711932, 1.3979979, 3.6856308, 116, 120, 106
1.0711932, 1.4343095, 3.6493192, 105, 108, 93
1.0711932, 1.4343095, 3.6856308, 101, 104, 89
1.0348816, 1.3979979, 3.758254, 75, 76, 66
1.0348816, 1.4343095, 3.7219424, 87, 90, 74
1.0348816, 1.4343095, 3.758254, 80, 84, 71
1.0711932, 1.3979979, 3.758254, 68, 68, 61
1.0711932, 1.4343095, 3.7219424, 87, 88, 75
1.0711932, 1.4343095, 3.758254, 72, 71, 63
1.1075048, 1.3616862, 3.6493192, 133, 134, 117
1.1438165, 1.3616862, 3.6493192, 127, 127, 103
1.1075048, 1.3979979, 3.6493192, 127, 128, 110
1.1075048, 1.3979979, 3.6856308, 110, 109, 91
1.1075048, 1.4343095, 3.6493192, 117, 118, 103
1.1075048, 1.4343095, 3.6856308, 88, 85, 70
1.1438165, 1.3979979, 3.6493192, 120, 119, 95
1.1438165, 1.3979979, 3.6856308, 103, 100, 80
1.1438165, 1.4343095, 3.6856308, 79, 75, 59
1.1075048, 1.4343095, 3.7219424, 71, 68, 57
1.1075048, 1.4343095, 3.758254, 58, 56, 50
1.1438165, 1.4343095, 3.7219424, 57, 53, 43
0.9985699, 1.3616862, 3.9035006, 91, 94, 84
0.9985699, 1.4343095, 3.7945657, 75, 79, 67
0.9985699, 1.4343095, 3.8308773, 82, 85, 74
0.9622583, 1.4343095, 3.867189, 90, 95, 83
0.9622583, 1.4343095, 3.9035006, 99, 105, 92
0.9985699, 1.3979979, 3.867189, 93, 97, 85
0.9985699, 1.3979979, 3.9035006, 99, 104, 92
0.9985699, 1.4343095, 3.867189, 91, 95, 83
0.9985699, 1.4343095, 3.9035006, 98, 104, 91
0.9985699, 1.3253746, 3.9761238, 97, 100, 90
0.9985699, 1.3616862, 3.9398122, 99, 102, 90
0.9985699, 1.3616862, 3.9761238, 103, 106, 93
0.9985699, 1.3253746, 4.0124354, 103, 107, 97
0.9985699, 1.3253746, 4.048747, 108, 112, 104
0.9985699, 1.3616862, 4.0124354, 105, 109, 97
0.9985699, 1.3616862, 4.048747, 111, 116, 106
0.9622583, 1.4343095, 3.9398122, 105, 111, 97
0.9622583, 1.4343095, 3.9761238, 104, 109, 95
0.9985699, 1.3979979, 3.9398122, 106, 110, 97
0.9985699, 1.3979979, 3.9761238, 106, 112, 98
0.9985699, 1.4343095, 3.9398122, 102, 107, 94
0.9985699, 1.4343095, 3.9761238, 100, 106, 92
0.9622583, 1.4343095, 4.0124354, 100, 106, 92
0.9622583, 1.4343095, 4.048747, 114, 121, 106
0.9985699, 1.3979979, 4.0124354, 108, 114, 100
0.9985699, 1.3979979, 4.048747, 120, 125, 113
0.9985699, 1.4343095, 4.0124354, 99, 105, 90
0.9985699, 1.4343095, 4.048747, 114, 121, 106
1.0711932, 1.2164397, 3.867189, 123, 130, 123
1.0711932, 1.2164397, 3.9035006, 150, 159, 153
1.0711932, 1.2527514, 3.7945657, 120, 127, 120
1.0711932, 1.2527514, 3.8308773, 126, 133, 123
1.0711932, 1.289063, 3.7945657, 116, 124, 114
1.0711932, 1.289063, 3.8308773, 127, 134, 124
1.0711932, 1.2527514, 3.867189, 128, 135, 125
1.0711932, 1.2527514, 3.9035006, 138, 146, 138
1.0711932, 1.289063, 3.867189, 124, 131, 121
1.0711932, 1.289063, 3.9035006, 127, 134, 125
1.1075048, 1.1801281, 3.7945657, 115, 121, 115
1.1075048, 1.1801281, 3.8308773, 117, 124, 116
1.1075048, 1.2164397, 3.7945657, 123, 131, 124
1.1075048, 1.2164397, 3.8308773, 113, 120, 112
1.1438165, 1.1801281, 3.7945657, 116, 122, 116
1.1438165, 1.1801281, 3.8308773, 114, 120, 113
1.1075048, 1.1801281, 3.867189, 136, 144, 139
1.1075048, 1.1801281, 3.9035006, 154, 163, 162
1.1075048, 1.2164397, 3.867189, 119, 126, 119
1.1075048, 1.2164397, 3.9035006, 146, 156, 151
1.1075048, 1.2527514, 3.7945657, 123, 132, 124
1.1075048, 1.2527514, 3.8308773, 124, 131, 123
1.1075048, 1.289063, 3.7945657, 109, 119, 111
1.1075048, 1.289063, 3.8308773, 129, 137, 127
1.1075048, 1.2527514, 3.867189, 124, 131, 122
1.0711932, 1.2164397, 3.9398122, 160, 168, 162
1.0348816, 1.289063, 3.9398122, 114, 119, 111
1.0348816, 1.289063, 3.9761238, 120, 126, 119
1.0711932, 1.2527514, 3.9398122, 150, 158, 151
1.0711932, 1.2527514, 3.9761238, 144, 151, 147
1.0711932, 1.289063, 3.9398122, 130, 136, 129
1.0711932, 1.289063, 3.9761238, 133, 139, 134
1.0348816, 1.289063, 4.0124354, 136, 141, 136
1.0348816, 1.289063, 4.048747, 142, 148, 143
1.0711932, 1.2527514, 4.0124354, 130, 135, 132
1.0711932, 1.2527514, 4.048747, 126, 131, 127
1.0711932, 1.289063, 4.0124354, 141, 147, 142
1.0711932, 1.289063, 4.048747, 135, 141, 136
1.1075048, 1.1801281, 3.9398122, 157, 164, 163
1.1075048, 1.1801281, 3.9761238, 156, 162, 160
1.1075048, 1.2164397, 3.9398122, 156, 164, 160
1.1075048, 1.2164397, 3.9761238, 147, 154, 152
1.1438165, 1.1801281, 3.9398122, 158, 163, 162
1.1438165, 1.1801281, 3.9761238, 139, 144, 138
1.1438165, 1.2164397, 3.9761238, 131, 134, 129
1.1075048, 1.2164397, 4.0124354, 129, 134, 131
1.1075048, 1.2164397, 4.048747, 113, 117, 112
1.1438165, 1.1801281, 4.0124354, 133, 140, 132
1.1438165, 1.1801281, 4.048747, 128, 132, 123
1.1438165, 1.2164397, 4.0124354, 108, 111, 105
1.1438165, 1.2164397, 4.048747, 93, 94, 88
1.1075048, 1.2527514, 3.9761238, 141, 149, 148
1.1075048, 1.2527514, 4.0124354, 127, 133, 131
1.1075048, 1.2527514, 4.048747, 124, 130, 126
1.0348816, 1.3616862, 3.7945657, 80, 82, 72
1.0348816, 1.3616862, 3.8308773, 98, 101, 88
1.0711932, 1.3253746, 3.8308773, 114, 119, 109
1.0711932, 1.3616862, 3.7945657, 72, 74, 66
1.0711932, 1.3616862, 3.8308773, 96, 99, 87
1.0348816, 1.3253746, 3.867189, 100, 104, 93
1.0348816, 1.3253746, 3.9035006, 94, 98, 88
1.0348816, 1.3616862, 3.867189, 94, 97, 85
1.0348816, 1.3616862, 3.9035006, 87, 90, 79
1.0711932, 1.3253746, 3.867189, 114, 119, 108
1.0711932, 1.3253746, 3.9035006, 106, 111, 100
1.0711932, 1.3616862, 3.867189, 100, 103, 92
1.0348816, 1.3979979, 3.7945657, 83, 85, 74
1.0348816, 1.3979979, 3.8308773, 97, 100, 86
1.0348816, 1.4343095, 3.7945657, 81, 85, 72
1.0348816, 1.4343095, 3.8308773, 85, 89, 76
1.0711932, 1.3979979, 3.7945657, 65, 65, 58
1.0711932, 1.4343095, 3.7945657, 66, 65, 58
1.0348816, 1.3979979, 3.867189, 92, 96, 83
1.0348816, 1.3979979, 3.9035006, 93, 97, 85
1.0348816, 1.4343095, 3.867189, 89, 93, 81
1.1075048, 1.4343095, 3.7945657, 51, 49, 45
1.0348816, 1.3253746, 3.9398122, 96, 100, 91
1.0348816, 1.3253746, 3.9761238, 104, 108, 100
1.0348816, 1.3616862, 3.9398122, 90, 93, 82
1.0348816, 1.3253746, 4.0124354, 115, 120, 113
1.0348816, 1.3253746, 4.048747, 128, 133, 126
0.9985699, 1.5069329, 3.6130075, 95, 100, 87
0.9985699, 1.5432445, 3.576696, 96, 103, 88
0.9985699, 1.5432445, 3.6130075, 101, 108, 95
0.9985699, 1.5795561, 3.576696, 102, 110, 95
0.9985699, 1.5795561, 3.6130075, 109, 117, 103
0.9985699, 1.5069329, 3.6493192, 96, 101, 87
0.9985699, 1.5069329, 3.6856308, 94, 98, 84
0.9622583, 1.5069329, 3.758254, 84, 89, 76
0.9985699, 1.4706212, 3.758254, 76, 79, 68
0.9985699, 1.5069329, 3.7219424, 87, 91, 78
0.9985699, 1.5069329, 3.758254, 81, 85, 72
0.9622583, 1.5795561, 3.6493192, 111, 118, 103
0.9622583, 1.5795561, 3.6856308, 111, 118, 102
0.9985699, 1.5432445, 3.6493192, 103, 109, 96
0.9985699, 1.5432445, 3.6856308, 99, 105, 90
0.9985699, 1.5795561, 3.6493192, 111, 118, 104
0.9985699, 1.5795561, 3.6856308, 109, 116, 100
0.9622583, 1.5432445, 3.7219424, 99, 106, 89
0.9622583, 1.5432445, 3.758254, 92, 98, 82
0.9622583, 1.5795561, 3.7219424, 111, 118, 101
0.9622583, 1.5795561, 3.758254, 98, 106, 87
0.9985699, 1.5432445, 3.7219424, 95, 101, 86
0.9985699, 1.5432445, 3.758254, 91, 96, 82
0.9985699, 1.5795561, 3.7219424, 108, 116, 98
0.889635, 1.7248026, 3.5040727, 99, 106, 95
0.889635, 1.7248026, 3.5403843, 104, 112, 102
0.92594665, 1.688491, 3.5040727, 107, 111, 99
0.92594665, 1.688491, 3.5403843, 104, 107, 97
0.92594665, 1.7248026, 3.5040727, 106, 111, 99
0.92594665, 1.7248026, 3.5403843, 104, 109, 98
0.889635, 1.7248026, 3.576696, 120, 128, 120
0.889635, 1.7248026, 3.6130075, 124, 133, 122
0.92594665, 1.688491, 3.576696, 104, 109, 99
0.92594665, 1.688491, 3.6130075, 110, 115, 105
0.92594665, 1.7248026, 3.576696, 109, 116, 106
0.92594665, 1.7248026, 3.6130075, 118, 125, 114
0.9985699, 1.6158677, 3.5403843, 91, 95, 80
0.9985699, 1.6521794, 3.5040727, 116, 120, 105
0.9985699, 1.6521794, 3.5403843, 115, 119, 104
0.9622583, 1.6158677, 3.6130075, 109, 115, 100
0.9985699, 1.6158677, 3.576696, 102, 108, 93
0.9985699, 1.6158677, 3.6130075, 109, 116, 101
0.9985699, 1.6521794, 3.576696, 109, 113, 99
0.9985699, 1.6521794, 3.6130075, 108, 112, 97
0.9622583, 1.688491, 3.5040727, 110, 113, 102
0.9622583, 1.688491, 3.5403843, 103, 105, 95
0.9622583, 1.7248026, 3.5040727, 110, 113, 101
0.9985699, 1.688491, 3.5040727, 117, 121, 110
0.9985699, 1.688491, 3.5403843, 114, 118, 105
0.9622583, 1.688491, 3.576696, 100, 101, 90
0.9622583, 1.688491, 3.6130075, 92, 92, 84
0.9622583, 1.7248026, 3.6130075, 104, 107, 98
0.9985699, 1.688491, 3.576696, 106, 108, 95
0.9985699, 1.688491, 3.6130075, 94, 94, 83
0.889635, 1.7248026, 3.6493192, 122, 130, 117
0.92594665, 1.7248026, 3.6493192, 119, 125, 112
0.92594665, 1.7248026, 3.6856308, 100, 105, 91
0.889635, 1.7248026, 3.7219424, 83, 88, 72
0.889635, 1.7248026, 3.758254, 90, 96, 81
0.92594665, 1.688491, 3.7219424, 94, 98, 83
0.92594665, 1.688491, 3.758254, 95, 99, 84
0.92594665, 1.7248026, 3.7219424, 86, 92, 77
0.92594665, 1.7248026, 3.758254, 89, 94, 80
0.9622583, 1.6158677, 3.6493192, 109, 115, 99
0.9622583, 1.6158677, 3.6856308, 113, 118, 103
0.9622583, 1.6521794, 3.6493192, 103, 105, 91
0.9622583, 1.6521794, 3.6856308, 106, 109, 95
0.9985699, 1.6158677, 3.6493192, 110, 116, 101
0.9985699, 1.6521794, 3.6493192, 104, 106, 93
0.9622583, 1.6158677, 3.7219424, 115, 122, 103
0.9622583, 1.6158677, 3.758254, 106, 113, 94
0.9622583, 1.6521794, 3.7219424, 111, 116, 99
0.9622583, 1.6521794, 3.758254, 115, 122, 103
0.9622583, 1.688491, 3.6493192, 91, 92, 83
0.9622583, 1.688491, 3.6856308, 95, 98, 86
0.9622583, 1.7248026, 3.6493192, 109, 113, 103
0.9622583, 1.7248026, 3.6856308, 102, 107, 94
0.9985699, 1.688491, 3.6493192, 88, 87, 78
0.9622583, 1.688491, 3.7219424, 98, 102, 87
0.9622583, 1.688491, 3.758254, 103, 107, 90
0.9622583, 1.7248026, 3.7219424, 96, 100, 86
1.0348816, 1.5069329, 3.5403843, 86, 89, 75
1.0711932, 1.4706212, 3.5040727, 88, 91, 77
1.0711932, 1.4706212, 3.5403843, 91, 95, 79
1.0711932, 1.5069329, 3.5040727, 71, 72, 62
1.0711932, 1.5069329, 3.5403843, 80, 82, 69
1.0348816, 1.4706212, 3.576696, 98, 102, 83
1.0348816, 1.4706212, 3.6130075, 98, 101, 84
1.0348816, 1.5069329, 3.576696, 94, 98, 82
1.0348816, 1.5069329, 3.6130075, 95, 99, 84
1.0711932, 1.4706212, 3.576696, 97, 100, 82
1.0711932, 1.4706212, 3.6130075, 98, 100, 82
1.0711932, 1.5069329, 3.576696, 98, 101, 84
1.0348816, 1.5432445, 3.5403843, 80, 83, 70
1.0348816, 1.5795561, 3.5403843, 79, 84, 69
1.0711932, 1.5432445, 3.5040727, 58, 57, 50
1.0711932, 1.5432445, 3.5403843, 69, 70, 61
1.0348816, 1.5432445, 3.576696, 89, 94, 80
1.0348816, 1.5432445, 3.6130075, 95, 101, 88
1.0348816, 1.5795561, 3.576696, 92, 99, 83
1.1075048, 1.4706212, 3.5040727, 92, 95, 82
1.1075048, 1.4706212, 3.5403843, 95, 98, 83
1.1075048, 1.5069329, 3.5040727, 67, 67, 60
1.1075048, 1.5432445, 3.5040727, 53, 51, 46
1.1075048, 1.5795561, 3.5040727, 87, 85, 74
1.0348816, 1.4706212, 3.6493192, 94, 97, 79
1.0348816, 1.4706212, 3.6856308, 91, 94, 76
1.0348816, 1.5069329, 3.6493192, 95, 99, 84
1.0348816, 1.5069329, 3.6856308, 93, 97, 81
1.0711932, 1.4706212, 3.6493192, 94, 97, 79
1.0711932, 1.4706212, 3.6856308, 93, 96, 77
1.0348816, 1.4706212, 3.7219424, 85, 88, 72
1.0348816, 1.4706212, 3.758254, 80, 84, 71
1.0348816, 1.5069329, 3.7219424, 87, 91, 76
1.1075048, 1.4706212, 3.6856308, 62, 57, 46
1.1438165, 1.4706212, 3.6856308, 57, 52, 41
1.1075048, 1.4706212, 3.7219424, 60, 55, 47
1.1075048, 1.4706212, 3.758254, 58, 54, 49
1.1438165, 1.4706212, 3.7219424, 51, 47, 39
1.1438165, 1.4706212, 3.758254, 53, 50, 45
1.0348816, 1.6158677, 3.5040727, 92, 94, 78
1.0348816, 1.6158677, 3.5403843, 78, 81, 66
1.0348816, 1.6521794, 3.5040727, 108, 110, 92
1.0348816, 1.6521794, 3.5403843, 103, 106, 89
1.0711932, 1.6158677, 3.5040727, 83, 83, 70
1.0711932, 1.6158677, 3.5403843, 60, 62, 50
1.0711932, 1.6521794, 3.5040727, 87, 88, 72
1.1075048, 1.6158677, 3.5040727, 78, 78, 68
0.92594665, 1.5069329, 3.867189, 108, 116, 100
0.92594665, 1.5069329, 3.9035006, 115, 123, 107
0.92594665, 1.5432445, 3.8308773, 107, 114, 98
0.92594665, 1.5795561, 3.7945657, 98, 105, 88
0.92594665, 1.5795561, 3.8308773, 107, 114, 97
0.92594665, 1.5432445, 3.867189, 111, 119, 102
0.92594665, 1.5432445, 3.9035006, 115, 124, 107
0.92594665, 1.5795561, 3.867189, 115, 123, 106
0.92594665, 1.5795561, 3.9035006, 120, 129, 112
0.9622583, 1.4706212, 3.7945657, 81, 85, 73
0.9622583, 1.4706212, 3.8308773, 88, 93, 80
0.9622583, 1.5069329, 3.7945657, 88, 94, 80
0.9622583, 1.5069329, 3.8308773, 98, 104, 90
0.9985699, 1.4706212, 3.7945657, 75, 78, 67
0.9985699, 1.4706212, 3.8308773, 81, 85, 73
0.9985699, 1.5069329, 3.7945657, 80, 84, 72
