2.278555, 0.80793387, 1.7701921, 165, 165, 177
2.278555, 0.8260897, 1.7520363, 162, 159, 168
2.278555, 0.8260897, 1.7701921, 191, 191, 200
2.260399, 0.80793387, 1.788348, 199, 204, 218
2.260399, 0.80793387, 1.8065038, 197, 202, 216
2.260399, 0.8260897, 1.788348, 196, 200, 214
2.278555, 0.80793387, 1.788348, 192, 194, 208
2.278555, 0.8260897, 1.788348, 204, 207, 219
2.260399, 0.8442455, 1.7701921, 193, 195, 205
2.260399, 0.8624013, 1.7701921, 173, 176, 189
2.278555, 0.8442455, 1.7520363, 158, 156, 166
2.278555, 0.8442455, 1.7701921, 191, 192, 201
2.278555, 0.8624013, 1.7520363, 170, 169, 181
2.278555, 0.8624013, 1.7701921, 186, 186, 198
2.260399, 0.8442455, 1.788348, 187, 190, 204
2.260399, 0.8624013, 1.788348, 171, 174, 189
2.1877759, 0.8260897, 1.9154387, 125, 122, 135
2.1877759, 0.8260897, 1.9335945, 136, 135, 148
2.1877759, 0.8260897, 1.9517503, 127, 126, 139
2.1877759, 0.8442455, 1.8972828, 109, 107, 119
2.1877759, 0.8442455, 1.9154387, 114, 112, 124
2.1877759, 0.8624013, 1.8972828, 109, 107, 120
2.1877759, 0.8624013, 1.9154387, 115, 114, 127
2.2059317, 0.8624013, 1.8972828, 109, 107, 121
2.2059317, 0.8624013, 1.9154387, 124, 123, 139
2.1877759, 0.8442455, 1.9335945, 135, 135, 149
2.1877759, 0.8442455, 1.9517503, 125, 125, 138
2.1877759, 0.8624013, 1.9335945, 142, 142, 158
2.1877759, 0.8624013, 1.9517503, 132, 132, 146
2.2059317, 0.8624013, 1.9335945, 141, 143, 160
2.1877759, 0.8260897, 1.9699061, 131, 130, 144
2.1877759, 0.8260897, 1.9880619, 139, 138, 152
2.1877759, 0.8260897, 2.0062177, 154, 155, 171
2.1877759, 0.8442455, 1.9699061, 130, 129, 143
2.1877759, 0.8442455, 1.9880619, 121, 120, 133
2.1877759, 0.8624013, 1.9699061, 119, 118, 130
2.1877759, 0.8624013, 1.9880619, 114, 113, 125
2.2059317, 0.8624013, 1.9699061, 108, 107, 119
2.1877759, 0.8442455, 2.0062177, 137, 138, 154
2.1877759, 0.8442455, 2.0243735, 155, 158, 174
2.1877759, 0.8624013, 2.0062177, 126, 127, 142
2.1877759, 0.8624013, 2.0243735, 147, 150, 167
2.0425293, 0.78977805, 2.0425293, 113, 114, 126
2.0425293, 0.78977805, 2.0606852, 119, 121, 133
2.0606852, 0.78977805, 2.0425293, 114, 115, 127
2.0606852, 0.78977805, 2.0606852, 118, 119, 132
2.0425293, 0.78977805, 2.078841, 129, 132, 145
2.0425293, 0.78977805, 2.0969968, 137, 140, 153
2.0606852, 0.78977805, 2.078841, 133, 135, 148
2.0606852, 0.78977805, 2.0969968, 150, 153, 166
2.078841, 0.78977805, 2.0425293, 124, 125, 138
2.078841, 0.78977805, 2.0606852, 123, 124, 137
2.0969968, 0.78977805, 2.0425293, 134, 135, 149
2.0969968, 0.78977805, 2.0606852, 135, 136, 150
2.078841, 0.78977805, 2.078841, 146, 147, 162
2.078841, 0.78977805, 2.0969968, 169, 172, 185
2.0969968, 0.78977805, 2.078841, 144, 145, 160
2.0969968, 0.78977805, 2.0969968, 165, 168, 182
2.0425293, 0.78977805, 2.1151526, 156, 159, 172
2.0606852, 0.78977805, 2.1151526, 165, 169, 181
2.078841, 0.78977805, 2.1151526, 174, 179, 191
2.0969968, 0.78977805, 2.1151526, 174, 178, 191
2.0969968, 0.80793387, 2.0969968, 171, 175, 188
2.0425293, 0.80793387, 2.1151526, 156, 161, 172
2.0425293, 0.80793387, 2.1333084, 147, 152, 163
2.0606852, 0.80793387, 2.1151526, 162, 166, 178
2.0606852, 0.80793387, 2.1333084, 158, 162, 173
2.0425293, 0.80793387, 2.1514642, 157, 162, 172
2.0425293, 0.8260897, 2.1514642, 155, 158, 167
2.0425293, 0.8260897, 2.16962, 112, 113, 122
2.0606852, 0.80793387, 2.1514642, 174, 177, 187
2.0606852, 0.8260897, 2.1514642, 162, 165, 174
2.0606852, 0.8260897, 2.16962, 117, 118, 127
2.0425293, 0.8442455, 2.1514642, 132, 134, 143
2.0425293, 0.8442455, 2.16962, 100, 101, 108
2.078841, 0.80793387, 2.1151526, 169, 173, 185
2.078841, 0.80793387, 2.1333084, 164, 167, 178
2.078841, 0.8260897, 2.1333084, 165, 168, 179
2.0969968, 0.80793387, 2.1151526, 170, 174, 186
2.0969968, 0.80793387, 2.1333084, 167, 171, 182
2.0969968, 0.8260897, 2.1333084, 172, 174, 185
2.078841, 0.80793387, 2.1514642, 168, 172, 182
2.078841, 0.8260897, 2.1514642, 155, 157, 167
2.078841, 0.8260897, 2.16962, 113, 113, 123
2.0969968, 0.8260897, 2.1514642, 159, 162, 172
2.0969968, 0.8260897, 2.16962, 103, 102, 112
2.0969968, 0.8442455, 2.1514642, 135, 138, 148
2.0969968, 0.8442455, 2.16962, 95, 94, 103
2.1151526, 0.78977805, 2.0425293, 143, 145, 160
2.1151526, 0.78977805, 2.0606852, 139, 140, 155
2.1333084, 0.78977805, 2.0425293, 144, 145, 161
2.1151526, 0.78977805, 2.078841, 143, 144, 159
2.1151526, 0.78977805, 2.0969968, 165, 167, 181
2.1151526, 0.80793387, 2.0425293, 141, 143, 159
2.1151526, 0.80793387, 2.0606852, 137, 138, 153
2.1333084, 0.80793387, 2.0425293, 149, 150, 165
2.1333084, 0.80793387, 2.0606852, 144, 145, 159
2.1151526, 0.80793387, 2.078841, 153, 154, 169
2.1151526, 0.80793387, 2.0969968, 167, 169, 183
2.1333084, 0.80793387, 2.078841, 157, 157, 171
2.1333084, 0.80793387, 2.0969968, 166, 167, 180
2.1333084, 0.8260897, 2.078841, 155, 154, 167
2.1333084, 0.8260897, 2.0969968, 154, 155, 168
2.1514642, 0.80793387, 2.0425293, 161, 160, 173
2.1514642, 0.80793387, 2.0606852, 154, 154, 166
2.1514642, 0.8260897, 2.0425293, 156, 156, 168
2.1514642, 0.8260897, 2.0606852, 154, 154, 166
2.16962, 0.8260897, 2.0425293, 142, 143, 157
2.16962, 0.8260897, 2.0606852, 143, 144, 158
2.1514642, 0.80793387, 2.078841, 153, 153, 166
2.1514642, 0.8260897, 2.078841, 147, 147, 160
2.1514642, 0.8260897, 2.0969968, 145, 145, 158
2.16962, 0.8260897, 2.078841, 145, 146, 161
2.16962, 0.8442455, 2.0425293, 132, 132, 147
2.16962, 0.8442455, 2.0606852, 136, 136, 152
2.16962, 0.8624013, 2.0425293, 127, 128, 144
2.16962, 0.8624013, 2.0606852, 130, 131, 148
2.1514642, 0.8442455, 2.0969968, 144, 145, 160
2.16962, 0.8442455, 2.078841, 143, 145, 162
2.16962, 0.8442455, 2.0969968, 143, 145, 162
2.16962, 0.8624013, 2.078841, 137, 138, 155
2.16962, 0.8624013, 2.0969968, 130, 130, 147
2.1151526, 0.80793387, 2.1151526, 159, 162, 174
2.1151526, 0.80793387, 2.1333084, 161, 163, 175
2.1151526, 0.8260897, 2.1151526, 150, 152, 165
2.1151526, 0.8260897, 2.1333084, 165, 168, 180
2.1333084, 0.80793387, 2.1151526, 150, 152, 166
2.1333084, 0.8260897, 2.1151526, 151, 153, 166
2.1333084, 0.8260897, 2.1333084, 162, 165, 178
2.1151526, 0.8260897, 2.1514642, 167, 171, 183
2.1333084, 0.8260897, 2.1514642, 167, 172, 186
2.1333084, 0.8442455, 2.1333084, 168, 173, 187
2.1333084, 0.8624013, 2.1333084, 151, 155, 171
2.1151526, 0.8442455, 2.1514642, 140, 143, 156
2.1151526, 0.8442455, 2.16962, 93, 92, 102
2.1151526, 0.8624013, 2.1514642, 117, 119, 131
2.1151526, 0.8624013, 2.16962, 94, 93, 104
2.1333084, 0.8442455, 2.1514642, 152, 157, 171
2.1333084, 0.8442455, 2.16962, 91, 89, 99
2.1333084, 0.8624013, 2.1514642, 127, 129, 142
2.1333084, 0.8624013, 2.16962, 93, 91, 102
2.1514642, 0.8260897, 2.1151526, 155, 157, 171
2.1514642, 0.8260897, 2.1333084, 173, 176, 190
2.1514642, 0.8442455, 2.1151526, 164, 166, 182
2.1514642, 0.8442455, 2.1333084, 175, 180, 195
2.1514642, 0.8624013, 2.1333084, 151, 154, 170
2.16962, 0.8442455, 2.1151526, 156, 158, 174
2.16962, 0.8624013, 2.1151526, 140, 141, 158
2.16962, 0.8624013, 2.1333084, 144, 145, 162
2.1514642, 0.8624013, 2.1514642, 132, 134, 148
2.1514642, 0.8624013, 2.16962, 90, 88, 100
2.0425293, 0.8260897, 2.1877759, 94, 95, 103
2.0425293, 0.8260897, 2.2059317, 134, 136, 145
2.0606852, 0.8260897, 2.1877759, 119, 121, 129
2.0606852, 0.8260897, 2.2059317, 146, 148, 157
2.0425293, 0.8260897, 2.2240875, 167, 171, 182
2.0606852, 0.8260897, 2.2240875, 181, 186, 196
2.0425293, 0.8442455, 2.1877759, 82, 84, 91
2.0425293, 0.8442455, 2.2059317, 150, 153, 163
2.0425293, 0.8442455, 2.2240875, 169, 175, 186
2.0425293, 0.8624013, 2.2240875, 172, 179, 191
2.0425293, 0.8624013, 2.2422433, 174, 181, 193
2.0606852, 0.8442455, 2.2240875, 181, 187, 198
2.0606852, 0.8442455, 2.2422433, 177, 183, 194
2.0606852, 0.8624013, 2.2422433, 182, 189, 200
2.078841, 0.8260897, 2.1877759, 119, 119, 129
2.078841, 0.8260897, 2.2059317, 139, 141, 151
2.0969968, 0.8260897, 2.1877759, 107, 106, 116
2.0969968, 0.8260897, 2.2059317, 134, 136, 147
2.078841, 0.8260897, 2.2240875, 169, 173, 184
2.0969968, 0.8260897, 2.2240875, 157, 161, 174
2.0969968, 0.8442455, 2.1877759, 94, 91, 101
2.0969968, 0.8442455, 2.2059317, 146, 149, 161
2.078841, 0.8442455, 2.2240875, 176, 181, 193
2.078841, 0.8442455, 2.2422433, 180, 187, 198
2.078841, 0.8624013, 2.2422433, 184, 190, 202
2.0969968, 0.8442455, 2.2240875, 167, 171, 185
2.0969968, 0.8442455, 2.2422433, 175, 180, 193
2.0969968, 0.8624013, 2.2240875, 172, 178, 192
2.0969968, 0.8624013, 2.2422433, 173, 179, 191
2.1151526, 0.8260897, 2.1877759, 111, 110, 120
2.1151526, 0.8260897, 2.2059317, 145, 146, 157
2.1151526, 0.8442455, 2.1877759, 98, 95, 105
2.1151526, 0.8442455, 2.2059317, 157, 159, 172
2.1333084, 0.8442455, 2.1877759, 96, 94, 105
2.1333084, 0.8442455, 2.2059317, 148, 150, 164
2.1333084, 0.8624013, 2.1877759, 88, 85, 96
2.1333084, 0.8624013, 2.2059317, 144, 146, 160
2.1151526, 0.8442455, 2.2240875, 171, 176, 191
2.1151526, 0.8624013, 2.2240875, 174, 180, 194
2.1151526, 0.8624013, 2.2422433, 175, 180, 194
2.1333084, 0.8442455, 2.2240875, 176, 181, 196
2.1333084, 0.8624013, 2.2240875, 175, 180, 195
2.1514642, 0.8624013, 2.1877759, 99, 98, 111
2.1514642, 0.8624013, 2.2059317, 134, 136, 150
2.16962, 0.8624013, 2.1877759, 109, 109, 123
2.1514642, 0.8624013, 2.2240875, 162, 166, 182
2.1877759, 0.8624013, 2.0425293, 129, 131, 146
2.1877759, 0.8624013, 2.0606852, 128, 129, 146
2.16962, 1.1528944, 1.788348, 59, 53, 54
2.16962, 1.1528944, 1.8065038, 57, 52, 53
2.2059317, 0.8805571, 1.8065038, 132, 132, 141
2.2059317, 0.89871293, 1.8065038, 103, 101, 110
2.2240875, 0.8805571, 1.8065038, 148, 150, 163
2.2240875, 0.89871293, 1.788348, 155, 158, 173
2.2240875, 0.89871293, 1.8065038, 128, 128, 139
2.2422433, 0.8805571, 1.788348, 176, 180, 196
2.2422433, 0.8805571, 1.8065038, 170, 174, 190
2.2422433, 0.89871293, 1.788348, 167, 171, 187
2.2422433, 0.89871293, 1.8065038, 164, 168, 184
2.2240875, 0.91686875, 1.788348, 147, 150, 163
2.2240875, 0.91686875, 1.8065038, 109, 109, 119
2.2240875, 0.93502456, 1.8065038, 99, 98, 108
2.2422433, 0.91686875, 1.788348, 164, 167, 182
2.2422433, 0.91686875, 1.8065038, 148, 151, 164
2.2422433, 0.93502456, 1.788348, 161, 163, 178
2.2422433, 0.93502456, 1.8065038, 139, 140, 152
2.2059317, 0.8805571, 1.8246596, 116, 115, 125
2.2059317, 0.8805571, 1.8428154, 130, 130, 144
2.2059317, 0.89871293, 1.8246596, 97, 94, 103
2.2059317, 0.8805571, 1.8609712, 156, 157, 173
2.2059317, 0.8805571, 1.879127, 134, 135, 148
2.2059317, 0.89871293, 1.879127, 124, 123, 136
2.2240875, 0.8805571, 1.8246596, 119, 118, 128
2.2240875, 0.8805571, 1.8428154, 132, 132, 146
2.2240875, 0.89871293, 1.8246596, 103, 100, 110
2.2240875, 0.89871293, 1.8428154, 122, 120, 133
2.2240875, 0.8805571, 1.8609712, 157, 156, 172
2.2240875, 0.8805571, 1.879127, 133, 133, 145
2.2240875, 0.89871293, 1.8609712, 141, 140, 155
2.2240875, 0.89871293, 1.879127, 118, 117, 129
2.2240875, 0.91686875, 1.8246596, 90, 87, 97
2.2240875, 0.91686875, 1.8428154, 110, 108, 120
2.2240875, 0.93502456, 1.8246596, 100, 97, 108
2.2240875, 0.93502456, 1.8428154, 127, 125, 138
2.2422433, 0.93502456, 1.8246596, 120, 118, 130
2.2422433, 0.93502456, 1.8428154, 140, 139, 153
2.2240875, 0.91686875, 1.8609712, 123, 121, 134
2.2240875, 0.91686875, 1.879127, 99, 96, 106
2.2240875, 0.93502456, 1.8609712, 132, 130, 141
2.2240875, 0.93502456, 1.879127, 99, 96, 106
2.2422433, 0.93502456, 1.8609712, 142, 141, 152
2.2422433, 0.93502456, 1.879127, 100, 97, 105
2.2240875, 0.9531804, 1.8065038, 94, 90, 97
2.2240875, 0.9713362, 1.8065038, 100, 95, 101
2.2422433, 0.9531804, 1.788348, 156, 156, 168
2.2422433, 0.9531804, 1.8065038, 121, 119, 128
2.2422433, 0.9713362, 1.788348, 145, 144, 154
2.2422433, 0.9713362, 1.8065038, 112, 108, 115
2.2422433, 0.989492, 1.788348, 144, 142, 151
2.2422433, 0.989492, 1.8065038, 112, 108, 114
2.2422433, 1.0076479, 1.788348, 147, 145, 153
2.2422433, 1.0076479, 1.8065038, 111, 107, 111
2.2422433, 0.9531804, 1.8246596, 118, 116, 125
2.2422433, 0.9531804, 1.8428154, 144, 142, 153
2.2422433, 0.9713362, 1.8246596, 116, 113, 121
2.2422433, 0.9713362, 1.8428154, 137, 134, 143
2.2240875, 0.9531804, 1.8609712, 138, 136, 146
2.2422433, 0.9531804, 1.8609712, 137, 135, 145
2.2422433, 0.9531804, 1.879127, 100, 97, 103
2.2422433, 0.9713362, 1.8609712, 122, 119, 126
2.2422433, 0.9713362, 1.879127, 94, 90, 96
2.2422433, 0.989492, 1.8246596, 103, 99, 106
2.2422433, 0.989492, 1.8428154, 122, 118, 125
2.2422433, 1.0076479, 1.8246596, 110, 105, 110
2.2422433, 1.0076479, 1.8428154, 125, 121, 126
2.2422433, 0.989492, 1.8609712, 109, 105, 110
2.2422433, 0.989492, 1.879127, 89, 83, 88
2.2422433, 1.0076479, 1.8609712, 106, 102, 107
2.2422433, 1.0076479, 1.879127, 91, 85, 90
2.260399, 0.8805571, 1.7520363, 184, 185, 196
2.260399, 0.8805571, 1.7701921, 166, 168, 182
2.260399, 0.89871293, 1.7520363, 182, 182, 191
2.260399, 0.89871293, 1.7701921, 162, 164, 177
2.278555, 0.8805571, 1.7520363, 172, 173, 184
2.278555, 0.89871293, 1.7520363, 178, 178, 187
2.260399, 0.8805571, 1.788348, 164, 167, 183
2.260399, 0.89871293, 1.788348, 155, 157, 173
2.260399, 0.91686875, 1.7520363, 178, 178, 186
2.260399, 0.91686875, 1.7701921, 166, 167, 179
2.260399, 0.93502456, 1.7520363, 174, 173, 182
2.260399, 0.93502456, 1.7701921, 162, 161, 172
2.278555, 0.91686875, 1.7520363, 176, 175, 184
2.278555, 0.93502456, 1.7520363, 170, 169, 179
2.278555, 0.93502456, 1.7701921, 168, 166, 176
2.260399, 0.91686875, 1.788348, 161, 163, 178
2.260399, 0.93502456, 1.788348, 165, 167, 181
2.260399, 0.9531804, 1.7520363, 166, 165, 173
2.260399, 0.9531804, 1.7701921, 157, 156, 167
2.260399, 0.9713362, 1.7701921, 164, 163, 174
2.278555, 0.9531804, 1.7520363, 154, 153, 162
2.278555, 0.9531804, 1.7701921, 162, 160, 169
2.278555, 0.9713362, 1.7520363, 140, 138, 147
2.278555, 0.9713362, 1.7701921, 157, 156, 166
2.260399, 0.9531804, 1.788348, 161, 162, 175
2.260399, 0.9713362, 1.788348, 163, 163, 175
2.260399, 0.989492, 1.7701921, 163, 164, 175
2.260399, 1.0076479, 1.7701921, 166, 166, 177
2.278555, 0.989492, 1.7520363, 138, 136, 145
2.278555, 0.989492, 1.7701921, 153, 153, 163
2.278555, 1.0076479, 1.7520363, 145, 144, 153
2.278555, 1.0076479, 1.7701921, 163, 162, 172
2.260399, 0.989492, 1.788348, 163, 163, 174
2.260399, 1.0076479, 1.788348, 162, 161, 172
2.2059317, 0.8805571, 1.8972828, 108, 107, 119
2.2059317, 0.8805571, 1.9154387, 126, 125, 141
2.1877759, 0.8805571, 1.9517503, 134, 136, 153
2.2059317, 0.8805571, 1.9335945, 147, 149, 167
2.2059317, 0.8805571, 1.9517503, 138, 140, 158
2.2059317, 0.89871293, 1.9517503, 144, 146, 162
2.2240875, 0.8805571, 1.8972828, 106, 104, 116
2.2240875, 0.8805571, 1.9154387, 138, 138, 153
2.2240875, 0.89871293, 1.8972828, 104, 101, 110
2.2240875, 0.89871293, 1.9154387, 141, 140, 153
2.2240875, 0.8805571, 1.9335945, 155, 157, 173
2.2240875, 0.8805571, 1.9517503, 152, 155, 171
2.2240875, 0.89871293, 1.9335945, 166, 168, 183
2.2240875, 0.89871293, 1.9517503, 150, 151, 165
2.2240875, 0.91686875, 1.8972828, 94, 90, 99
2.2240875, 0.91686875, 1.9154387, 130, 128, 141
2.2240875, 0.93502456, 1.8972828, 96, 93, 103
2.2240875, 0.93502456, 1.9154387, 142, 142, 156
2.2422433, 0.91686875, 1.9154387, 133, 131, 144
2.2422433, 0.93502456, 1.8972828, 116, 115, 126
2.2422433, 0.93502456, 1.9154387, 148, 148, 162
2.2240875, 0.91686875, 1.9335945, 154, 155, 170
2.2240875, 0.91686875, 1.9517503, 133, 133, 144
2.2240875, 0.93502456, 1.9335945, 151, 152, 167
2.2240875, 0.93502456, 1.9517503, 124, 124, 136
2.2422433, 0.93502456, 1.9335945, 155, 156, 171
2.1877759, 0.8805571, 1.9699061, 116, 115, 129
2.1877759, 0.8805571, 1.9880619, 120, 120, 135
2.2059317, 0.8805571, 1.9699061, 124, 126, 141
2.2059317, 0.8805571, 1.9880619, 130, 132, 148
2.2059317, 0.89871293, 1.9699061, 134, 135, 151
2.2059317, 0.89871293, 1.9880619, 147, 149, 166
2.1877759, 0.8805571, 2.0062177, 119, 120, 134
2.1877759, 0.8805571, 2.0243735, 129, 131, 147
2.1877759, 0.89871293, 2.0243735, 121, 122, 134
2.2059317, 0.8805571, 2.0062177, 124, 125, 140
2.2059317, 0.8805571, 2.0243735, 124, 125, 139
2.2059317, 0.89871293, 2.0062177, 150, 153, 169
2.2059317, 0.89871293, 2.0243735, 127, 127, 141
2.2059317, 0.91686875, 1.9880619, 167, 170, 185
2.2059317, 0.91686875, 2.0062177, 161, 163, 178
2.2059317, 0.91686875, 2.0243735, 126, 126, 139
2.2059317, 0.93502456, 2.0062177, 155, 156, 170
2.2059317, 0.93502456, 2.0243735, 114, 112, 122
2.2240875, 0.89871293, 1.9699061, 137, 138, 152
2.2240875, 0.89871293, 1.9880619, 161, 163, 179
2.2240875, 0.91686875, 1.9699061, 142, 142, 154
2.2240875, 0.91686875, 1.9880619, 170, 171, 186
2.2240875, 0.93502456, 1.9699061, 131, 131, 144
2.2240875, 0.93502456, 1.9880619, 158, 159, 174
2.2240875, 0.91686875, 2.0062177, 170, 173, 187
2.2240875, 0.93502456, 2.0062177, 156, 158, 172
2.2240875, 0.93502456, 2.0243735, 109, 107, 116
2.2422433, 0.9531804, 1.8972828, 117, 115, 124
2.2422433, 0.9531804, 1.9154387, 153, 152, 166
2.2422433, 0.9713362, 1.8972828, 107, 104, 112
2.2422433, 0.9713362, 1.9154387, 137, 136, 148
2.2240875, 0.9531804, 1.9517503, 127, 127, 142
2.2422433, 0.9531804, 1.9335945, 150, 151, 166
2.2422433, 0.9531804, 1.9517503, 127, 127, 141
2.2422433, 0.9713362, 1.9335945, 136, 135, 148
2.2422433, 0.9713362, 1.9517503, 122, 121, 132
2.2422433, 0.989492, 1.8972828, 96, 91, 99
2.2422433, 0.989492, 1.9154387, 129, 128, 141
2.2422433, 1.0076479, 1.8972828, 103, 99, 107
2.2422433, 0.989492, 1.9335945, 128, 127, 139
2.2422433, 0.989492, 1.9517503, 117, 115, 125
2.2422433, 1.0076479, 1.9335945, 137, 136, 150
2.2422433, 1.0076479, 1.9517503, 122, 121, 132
2.2240875, 0.9531804, 1.9699061, 138, 138, 154
2.2240875, 0.9531804, 1.9880619, 154, 156, 171
2.2240875, 0.9713362, 1.9880619, 157, 159, 174
2.2422433, 0.9531804, 1.9699061, 141, 141, 156
2.2422433, 0.9531804, 1.9880619, 154, 155, 171
2.2422433, 0.9713362, 1.9699061, 151, 151, 165
2.2422433, 0.9713362, 1.9880619, 161, 162, 177
2.2240875, 0.9531804, 2.0062177, 142, 143, 155
2.2240875, 0.9531804, 2.0243735, 107, 104, 112
2.2240875, 0.9713362, 2.0062177, 145, 145, 157
2.2240875, 0.9713362, 2.0243735, 116, 114, 121
2.2422433, 0.9713362, 2.0062177, 160, 162, 176
2.2422433, 0.989492, 1.9699061, 149, 149, 163
2.2422433, 0.989492, 1.9880619, 163, 165, 180
2.2422433, 1.0076479, 1.9699061, 128, 128, 140
2.2422433, 1.0076479, 1.9880619, 147, 149, 165
2.2240875, 0.989492, 2.0062177, 141, 142, 154
2.2240875, 0.989492, 2.0243735, 116, 114, 122
2.2240875, 1.0076479, 2.0062177, 125, 126, 137
2.2240875, 1.0076479, 2.0243735, 111, 109, 117
2.2422433, 0.989492, 2.0062177, 150, 153, 167
2.2422433, 1.0076479, 2.0062177, 141, 143, 158
2.260399, 0.9531804, 1.8972828, 120, 118, 127
2.260399, 0.9531804, 1.9154387, 148, 147, 160
2.260399, 0.9713362, 1.8972828, 118, 117, 126
2.260399, 0.9713362, 1.9154387, 131, 131, 142
2.260399, 0.9713362, 1.9517503, 112, 110, 120
2.260399, 0.989492, 1.8972828, 108, 104, 113
2.260399, 0.989492, 1.9154387, 130, 128, 141
2.260399, 1.0076479, 1.8972828, 117, 115, 124
2.260399, 1.0076479, 1.9154387, 143, 142, 156
2.260399, 0.989492, 1.9335945, 132, 131, 144
2.260399, 0.989492, 1.9517503, 115, 114, 123
2.260399, 1.0076479, 1.9335945, 146, 146, 161
2.260399, 1.0076479, 1.9517503, 124, 124, 135
2.260399, 0.989492, 1.9699061, 144, 144, 158
2.260399, 1.0076479, 1.9699061, 124, 124, 136
2.2422433, 1.0258037, 1.788348, 151, 149, 156
2.2422433, 1.0258037, 1.8065038, 117, 113, 116
2.2422433, 1.0439595, 1.788348, 138, 135, 141
2.2422433, 1.0439595, 1.8065038, 109, 105, 107
2.2422433, 1.0802711, 1.7701921, 142, 141, 149
2.2240875, 1.0621153, 1.788348, 110, 108, 109
2.2240875, 1.0621153, 1.8065038, 98, 93, 94
2.2240875, 1.0802711, 1.788348, 110, 108, 110
2.2240875, 1.0802711, 1.8065038, 92, 87, 88
2.2422433, 1.0621153, 1.788348, 125, 124, 128
2.2422433, 1.0621153, 1.8065038, 98, 93, 95
2.2422433, 1.0802711, 1.788348, 128, 127, 132
2.2422433, 1.0802711, 1.8065038, 93, 87, 89
2.2422433, 1.0258037, 1.8246596, 123, 119, 123
2.2422433, 1.0258037, 1.8428154, 137, 134, 140
2.2422433, 1.0439595, 1.8246596, 114, 111, 115
2.2422433, 1.0439595, 1.8428154, 131, 130, 135
2.2422433, 1.0258037, 1.8609712, 116, 112, 118
2.2422433, 1.0258037, 1.879127, 95, 91, 95
2.2422433, 1.0439595, 1.8609712, 116, 114, 119
2.2422433, 1.0439595, 1.879127, 94, 90, 92
2.2240875, 1.0802711, 1.8246596, 94, 89, 90
2.2422433, 1.0621153, 1.8246596, 102, 99, 102
2.2422433, 1.0621153, 1.8428154, 113, 112, 116
2.2422433, 1.0802711, 1.8246596, 99, 95, 97
2.2422433, 1.0802711, 1.8428154, 112, 110, 114
2.2422433, 1.0621153, 1.8609712, 104, 102, 104
2.2422433, 1.0621153, 1.879127, 87, 83, 84
2.2422433, 1.0802711, 1.8609712, 104, 101, 104
2.2422433, 1.0802711, 1.879127, 87, 83, 84
2.1877759, 1.1528944, 1.788348, 63, 58, 60
2.1877759, 1.1528944, 1.8065038, 57, 52, 55
2.2059317, 1.1528944, 1.788348, 80, 75, 76
2.2059317, 1.1528944, 1.8065038, 65, 59, 61
2.2240875, 1.1165828, 1.7701921, 120, 117, 121
2.2422433, 1.0984269, 1.7701921, 139, 138, 147
2.2422433, 1.1165828, 1.7701921, 141, 139, 147
2.2240875, 1.0984269, 1.788348, 106, 101, 103
2.2240875, 1.0984269, 1.8065038, 90, 83, 83
2.2240875, 1.1165828, 1.788348, 102, 97, 98
2.2240875, 1.1165828, 1.8065038, 86, 80, 80
2.2422433, 1.0984269, 1.788348, 128, 126, 132
2.2422433, 1.1165828, 1.788348, 131, 129, 135
2.2422433, 1.1165828, 1.8065038, 92, 86, 86
2.2240875, 1.1347386, 1.7701921, 123, 119, 124
2.2240875, 1.1528944, 1.7701921, 123, 119, 122
2.2422433, 1.1347386, 1.7701921, 142, 139, 147
2.2422433, 1.1528944, 1.7701921, 141, 137, 144
2.2240875, 1.1347386, 1.788348, 102, 97, 99
2.2240875, 1.1347386, 1.8065038, 80, 75, 76
2.2240875, 1.1528944, 1.788348, 101, 96, 98
2.2240875, 1.1528944, 1.8065038, 71, 66, 67
2.1877759, 1.1347386, 1.8246596, 61, 57, 63
2.1877759, 1.1528944, 1.8246596, 59, 54, 59
2.2059317, 1.1528944, 1.8246596, 65, 59, 62
2.2240875, 1.0984269, 1.8246596, 94, 89, 90
2.2240875, 1.1165828, 1.8246596, 94, 88, 90
2.2422433, 1.0984269, 1.8246596, 104, 99, 102
2.2422433, 1.0984269, 1.8428154, 123, 120, 125
2.2422433, 1.1165828, 1.8246596, 104, 99, 102
2.2422433, 1.1165828, 1.8428154, 120, 117, 121
2.2422433, 1.0984269, 1.8609712, 113, 111, 115
2.2422433, 1.0984269, 1.879127, 96, 93, 95
2.2422433, 1.1165828, 1.8609712, 121, 119, 123
2.2422433, 1.1165828, 1.879127, 104, 101, 104
2.2240875, 1.1347386, 1.8246596, 85, 80, 83
2.2240875, 1.1528944, 1.8246596, 73, 68, 70
2.2240875, 1.1528944, 1.8428154, 73, 68, 70
2.2422433, 1.1347386, 1.8246596, 99, 94, 98
2.2422433, 1.1347386, 1.8428154, 107, 104, 107
2.2422433, 1.1528944, 1.8428154, 85, 79, 82
2.2422433, 1.1347386, 1.8609712, 112, 110, 112
2.2422433, 1.1347386, 1.879127, 105, 102, 104
2.2422433, 1.1528944, 1.8609712, 94, 87, 89
2.2422433, 1.1528944, 1.879127, 105, 101, 102
2.260399, 1.0258037, 1.7701921, 169, 169, 181
2.260399, 1.0439595, 1.7701921, 166, 166, 178
2.278555, 1.0258037, 1.7520363, 143, 142, 150
2.278555, 1.0258037, 1.7701921, 173, 173, 184
2.278555, 1.0439595, 1.7520363, 134, 132, 142
2.278555, 1.0439595, 1.7701921, 167, 168, 180
2.260399, 1.0258037, 1.788348, 163, 162, 173
2.260399, 1.0439595, 1.788348, 159, 158, 168
2.260399, 1.0621153, 1.7701921, 163, 163, 174
2.260399, 1.0802711, 1.7701921, 159, 160, 171
2.278555, 1.0621153, 1.7520363, 130, 129, 139
2.278555, 1.0621153, 1.7701921, 161, 162, 174
2.278555, 1.0802711, 1.7520363, 131, 130, 140
2.278555, 1.0802711, 1.7701921, 158, 159, 171
2.260399, 1.0621153, 1.788348, 155, 154, 165
2.260399, 1.0802711, 1.788348, 152, 152, 161
2.260399, 1.0258037, 1.8428154, 142, 140, 145
2.260399, 1.0439595, 1.8246596, 127, 124, 129
2.260399, 1.0439595, 1.8428154, 137, 135, 140
2.260399, 1.0258037, 1.879127, 95, 91, 95
2.260399, 1.0439595, 1.879127, 93, 89, 93
2.260399, 1.0984269, 1.7701921, 159, 159, 171
2.260399, 1.1165828, 1.7701921, 160, 158, 169
2.278555, 1.0984269, 1.7520363, 140, 139, 149
2.278555, 1.0984269, 1.7701921, 160, 160, 172
2.278555, 1.1165828, 1.7520363, 145, 143, 153
2.278555, 1.1165828, 1.7701921, 168, 167, 180
2.260399, 1.1347386, 1.7701921, 158, 156, 166
2.260399, 1.1528944, 1.7701921, 154, 151, 161
2.278555, 1.1347386, 1.7520363, 146, 144, 153
2.278555, 1.1347386, 1.7701921, 174, 173, 184
2.278555, 1.1528944, 1.7520363, 143, 140, 148
2.278555, 1.1528944, 1.7701921, 161, 159, 170
2.260399, 1.0984269, 1.879127, 88, 85, 87
2.260399, 1.1528944, 1.879127, 114, 110, 112
2.2422433, 1.0258037, 1.8972828, 103, 100, 107
2.2422433, 1.0258037, 1.9517503, 130, 130, 141
2.2422433, 1.0439595, 1.9517503, 107, 104, 112
2.2422433, 1.0621153, 1.8972828, 88, 83, 86
2.2422433, 1.0802711, 1.8972828, 88, 82, 85
2.2422433, 1.0258037, 1.9880619, 138, 140, 156
2.2422433, 1.0439595, 1.9880619, 143, 145, 159
2.2240875, 1.0258037, 2.0062177, 135, 137, 151
2.2240875, 1.0258037, 2.0243735, 119, 118, 129
2.2240875, 1.0439595, 2.0062177, 143, 146, 161
2.2240875, 1.0439595, 2.0243735, 132, 134, 146
2.2422433, 1.0258037, 2.0062177, 143, 146, 162
2.2422433, 1.0258037, 2.0243735, 130, 131, 144
2.2422433, 1.0439595, 2.0062177, 145, 148, 164
2.2422433, 1.0439595, 2.0243735, 142, 144, 159
2.2422433, 1.0621153, 1.9880619, 145, 145, 155
2.2422433, 1.0802711, 1.9699061, 120, 118, 127
2.2422433, 1.0802711, 1.9880619, 121, 120, 128
2.2240875, 1.0621153, 2.0243735, 131, 134, 146
2.2240875, 1.0802711, 2.0243735, 122, 123, 136
2.2422433, 1.0621153, 2.0062177, 150, 152, 166
2.2422433, 1.0621153, 2.0243735, 140, 142, 156
2.2422433, 1.0802711, 2.0062177, 134, 135, 147
2.2422433, 1.0802711, 2.0243735, 131, 132, 145
2.2422433, 1.0984269, 1.8972828, 90, 85, 87
2.2422433, 1.1165828, 1.8972828, 93, 89, 93
2.2422433, 1.1347386, 1.8972828, 100, 97, 101
2.2422433, 1.1347386, 1.9154387, 100, 98, 102
2.2422433, 1.1528944, 1.8972828, 118, 115, 119
2.2422433, 1.1528944, 1.9154387, 114, 111, 115
2.2422433, 1.1347386, 1.9335945, 102, 99, 103
2.2422433, 1.1528944, 1.9335945, 100, 96, 98
2.2059317, 1.1528944, 2.0243735, 68, 64, 68
2.2422433, 1.0984269, 1.9699061, 123, 123, 132
2.2422433, 1.0984269, 1.9880619, 113, 112, 118
2.2422433, 1.1165828, 1.9699061, 122, 121, 130
2.2422433, 1.1165828, 1.9880619, 112, 111, 117
2.2422433, 1.0984269, 2.0062177, 117, 117, 125
2.2422433, 1.0984269, 2.0243735, 135, 135, 146
2.2422433, 1.1165828, 2.0062177, 111, 109, 115
2.2422433, 1.1165828, 2.0243735, 135, 134, 143
2.2422433, 1.1347386, 1.9699061, 132, 132, 141
2.2422433, 1.1347386, 1.9880619, 120, 120, 127
2.2422433, 1.1528944, 1.9699061, 144, 142, 150
2.2422433, 1.1528944, 1.9880619, 132, 131, 139
2.2240875, 1.1347386, 2.0243735, 103, 102, 107
2.2240875, 1.1528944, 2.0062177, 95, 94, 97
2.2240875, 1.1528944, 2.0243735, 83, 80, 83
2.2422433, 1.1347386, 2.0062177, 105, 105, 109
2.2422433, 1.1347386, 2.0243735, 115, 115, 121
2.2422433, 1.1528944, 2.0062177, 111, 110, 114
2.260399, 1.0258037, 1.8972828, 114, 112, 119
2.260399, 1.0258037, 1.9154387, 142, 142, 154
2.260399, 1.0439595, 1.8972828, 109, 107, 113
2.260399, 1.0439595, 1.9154387, 132, 132, 141
2.260399, 1.0258037, 1.9335945, 156, 157, 172
2.260399, 1.0258037, 1.9517503, 129, 129, 141
2.260399, 1.0439595, 1.9335945, 145, 146, 158
2.260399, 1.0439595, 1.9517503, 117, 115, 124
2.260399, 1.0621153, 1.8972828, 98, 94, 98
2.260399, 1.0621153, 1.9154387, 127, 125, 133
2.260399, 1.0802711, 1.8972828, 100, 97, 99
2.260399, 1.0802711, 1.9154387, 127, 125, 131
2.260399, 1.0621153, 1.9335945, 142, 141, 153
2.260399, 1.0621153, 1.9517503, 120, 119, 127
2.260399, 1.0802711, 1.9335945, 154, 153, 164
2.260399, 1.0802711, 1.9517503, 148, 148, 158
2.260399, 1.0258037, 1.9699061, 120, 119, 130
2.260399, 1.0258037, 1.9880619, 135, 136, 151
2.260399, 1.0439595, 1.9699061, 126, 124, 133
2.260399, 1.0439595, 1.9880619, 144, 145, 158
2.260399, 1.0621153, 1.9699061, 118, 117, 124
2.260399, 1.0621153, 1.9880619, 142, 142, 151
2.260399, 1.0802711, 1.9699061, 123, 122, 131
2.260399, 1.0802711, 1.9880619, 126, 125, 133
2.260399, 1.0621153, 2.0062177, 152, 153, 165
2.260399, 1.0984269, 1.8972828, 99, 96, 98
2.260399, 1.0984269, 1.9154387, 123, 122, 127
2.260399, 1.1165828, 1.8972828, 97, 94, 97
2.260399, 1.1165828, 1.9154387, 108, 106, 112
2.278555, 1.0984269, 1.9154387, 132, 131, 137
2.260399, 1.0984269, 1.9335945, 144, 143, 153
2.260399, 1.0984269, 1.9517503, 148, 148, 158
2.260399, 1.1165828, 1.9335945, 119, 118, 127
2.260399, 1.1165828, 1.9517503, 123, 122, 132
2.260399, 1.1347386, 1.9154387, 98, 96, 101
2.260399, 1.1528944, 1.8972828, 122, 119, 124
2.260399, 1.1528944, 1.9154387, 120, 117, 123
2.260399, 1.1347386, 1.9335945, 105, 102, 108
2.260399, 1.1347386, 1.9517503, 120, 118, 125
2.260399, 1.1528944, 1.9335945, 106, 102, 104
2.260399, 1.1528944, 1.9517503, 132, 130, 136
2.260399, 1.0984269, 1.9699061, 133, 133, 144
2.260399, 1.1165828, 1.9699061, 122, 122, 132
2.260399, 1.1347386, 1.9699061, 133, 132, 142
2.260399, 1.1528944, 1.9699061, 150, 148, 156
2.16962, 0.8805571, 2.078841, 127, 128, 143
2.16962, 0.8805571, 2.0969968, 130, 130, 145
2.1333084, 0.8805571, 2.1514642, 117, 118, 130
2.1333084, 0.8805571, 2.16962, 93, 91, 103
2.1514642, 0.8805571, 2.1333084, 124, 125, 140
2.16962, 0.8805571, 2.1151526, 144, 145, 161
2.16962, 0.8805571, 2.1333084, 136, 137, 152
2.16962, 0.89871293, 2.1333084, 121, 121, 134
2.1514642, 0.8805571, 2.1514642, 106, 105, 118
2.1514642, 0.8805571, 2.16962, 92, 90, 102
2.16962, 0.8805571, 2.1514642, 98, 97, 109
2.16962, 0.8805571, 2.16962, 102, 102, 114
2.16962, 0.89871293, 2.1514642, 97, 95, 107
2.16962, 0.89871293, 2.16962, 104, 104, 117
2.16962, 0.9713362, 2.1333084, 90, 88, 98
2.1514642, 0.9713362, 2.1514642, 103, 104, 115
2.1514642, 0.9713362, 2.16962, 85, 83, 92
2.16962, 0.9531804, 2.16962, 110, 110, 122
2.16962, 0.9713362, 2.1514642, 107, 109, 120
2.16962, 0.9713362, 2.16962, 102, 102, 112
2.1514642, 0.989492, 2.1333084, 108, 110, 122
2.16962, 0.989492, 2.1333084, 108, 109, 121
2.16962, 1.0076479, 2.1333084, 127, 126, 140
2.1514642, 0.989492, 2.1514642, 107, 109, 121
2.1514642, 0.989492, 2.16962, 103, 102, 114
2.1514642, 1.0076479, 2.16962, 104, 104, 117
2.16962, 0.989492, 2.1514642, 111, 112, 125
2.16962, 1.0076479, 2.1514642, 122, 122, 136
2.16962, 1.0076479, 2.16962, 107, 107, 119
2.0425293, 0.8805571, 2.2422433, 177, 185, 196
2.0606852, 0.8805571, 2.2422433, 185, 192, 204
2.0425293, 0.93502456, 2.2422433, 166, 169, 174
2.0606852, 0.93502456, 2.2422433, 153, 155, 158
2.078841, 0.8805571, 2.2422433, 183, 189, 200
2.0969968, 0.8805571, 2.2422433, 174, 179, 191
2.0969968, 0.89871293, 2.2422433, 182, 189, 202
2.078841, 0.93502456, 2.2422433, 168, 174, 183
2.0969968, 0.91686875, 2.2422433, 182, 190, 203
2.0969968, 0.93502456, 2.2422433, 175, 183, 195
2.0425293, 0.8805571, 2.260399, 186, 192, 203
2.0425293, 0.89871293, 2.260399, 188, 194, 205
2.0606852, 0.8805571, 2.260399, 185, 191, 203
2.0606852, 0.89871293, 2.260399, 184, 190, 201
2.0425293, 0.91686875, 2.260399, 183, 189, 198
2.0425293, 0.93502456, 2.260399, 174, 178, 185
2.0606852, 0.91686875, 2.260399, 179, 186, 196
2.0606852, 0.93502456, 2.260399, 165, 168, 173
2.078841, 0.8805571, 2.260399, 185, 191, 202
2.078841, 0.89871293, 2.260399, 185, 192, 204
2.0969968, 0.89871293, 2.260399, 186, 192, 205
2.078841, 0.91686875, 2.260399, 179, 185, 195
2.078841, 0.93502456, 2.260399, 171, 177, 185
2.0969968, 0.91686875, 2.260399, 184, 191, 203
2.0969968, 0.93502456, 2.260399, 177, 185, 196
2.0425293, 0.9531804, 2.2422433, 149, 153, 157
2.0425293, 0.9713362, 2.2422433, 133, 135, 140
2.0606852, 0.9531804, 2.2422433, 134, 135, 137
2.0606852, 0.9713362, 2.2422433, 130, 132, 134
2.0425293, 0.989492, 2.2240875, 118, 121, 125
2.0425293, 0.989492, 2.2422433, 120, 121, 127
2.0425293, 1.0076479, 2.2422433, 113, 113, 121
2.0606852, 0.989492, 2.2240875, 120, 123, 127
2.0606852, 0.989492, 2.2422433, 123, 125, 129
2.0606852, 1.0076479, 2.2422433, 117, 118, 125
2.078841, 0.9531804, 2.2422433, 139, 144, 149
2.078841, 0.9713362, 2.2422433, 133, 135, 136
2.0969968, 0.9531804, 2.2422433, 143, 148, 157
2.0969968, 0.9713362, 2.2240875, 116, 118, 124
2.0969968, 0.9713362, 2.2422433, 115, 117, 122
2.078841, 0.989492, 2.2422433, 135, 138, 142
2.078841, 1.0076479, 2.2422433, 129, 131, 137
2.0969968, 0.989492, 2.2240875, 122, 124, 131
2.0969968, 0.989492, 2.2422433, 128, 131, 137
2.0969968, 1.0076479, 2.2422433, 117, 119, 122
2.0425293, 0.9531804, 2.260399, 158, 162, 167
2.0606852, 0.9531804, 2.260399, 139, 140, 142
2.0425293, 1.0076479, 2.278555, 90, 89, 101
2.0425293, 1.0076479, 2.2967107, 90, 88, 100
2.0425293, 1.0076479, 2.3148665, 82, 80, 91
2.0606852, 1.0076479, 2.3148665, 75, 72, 82
2.078841, 0.9531804, 2.260399, 156, 161, 167
2.0969968, 0.989492, 2.278555, 79, 81, 84
2.0969968, 1.0076479, 2.260399, 86, 87, 90
2.0969968, 1.0076479, 2.278555, 71, 72, 75
2.078841, 1.0076479, 2.3148665, 72, 71, 77
2.0969968, 0.989492, 2.2967107, 87, 90, 94
2.0969968, 0.989492, 2.3148665, 100, 102, 106
2.0969968, 1.0076479, 2.2967107, 72, 72, 76
2.0969968, 1.0076479, 2.3148665, 78, 78, 82
2.1151526, 0.8805571, 2.2422433, 178, 184, 197
2.1151526, 0.89871293, 2.2422433, 171, 178, 191
2.1333084, 0.8805571, 2.2240875, 173, 179, 194
2.1333084, 0.8805571, 2.2422433, 178, 185, 199
2.1333084, 0.89871293, 2.2422433, 167, 174, 188
2.1151526, 0.91686875, 2.2422433, 170, 177, 191
2.1151526, 0.93502456, 2.2422433, 169, 176, 189
2.1333084, 0.91686875, 2.2422433, 158, 166, 180
2.1333084, 0.93502456, 2.2422433, 157, 165, 180
2.1514642, 0.8805571, 2.1877759, 101, 101, 115
2.1514642, 0.8805571, 2.2059317, 148, 152, 167
2.16962, 0.8805571, 2.1877759, 119, 120, 134
2.16962, 0.8805571, 2.2059317, 155, 159, 175
2.16962, 0.89871293, 2.2059317, 163, 167, 184
2.1514642, 0.8805571, 2.2240875, 171, 177, 193
2.1514642, 0.8805571, 2.2422433, 174, 181, 196
2.1514642, 0.89871293, 2.2240875, 169, 177, 193
2.1514642, 0.89871293, 2.2422433, 170, 177, 193
2.16962, 0.8805571, 2.2240875, 167, 172, 188
2.16962, 0.89871293, 2.2240875, 162, 167, 183
2.16962, 0.93502456, 2.1877759, 95, 94, 104
2.16962, 0.93502456, 2.2059317, 136, 141, 157
2.1514642, 0.91686875, 2.2240875, 176, 183, 199
2.1514642, 0.91686875, 2.2422433, 172, 180, 196
2.1514642, 0.93502456, 2.2240875, 170, 178, 192
2.1514642, 0.93502456, 2.2422433, 170, 178, 193
2.16962, 0.91686875, 2.2240875, 171, 177, 193
2.16962, 0.93502456, 2.2240875, 167, 173, 189
2.16962, 0.93502456, 2.2422433, 177, 184, 200
2.1151526, 0.91686875, 2.260399, 177, 184, 197
2.1333084, 0.9713362, 2.1877759, 63, 60, 68
2.1333084, 0.9713362, 2.2059317, 77, 75, 83
2.1151526, 0.9531804, 2.2422433, 146, 152, 163
2.1151526, 0.9713362, 2.2240875, 112, 114, 121
2.1151526, 0.9713362, 2.2422433, 115, 118, 125
2.1333084, 0.9531804, 2.2240875, 124, 129, 142
2.1333084, 0.9531804, 2.2422433, 140, 146, 160
2.1333084, 0.9713362, 2.2240875, 118, 121, 133
2.1333084, 0.9713362, 2.2422433, 126, 129, 140
2.1333084, 0.989492, 2.1877759, 76, 73, 83
2.1333084, 0.989492, 2.2059317, 75, 71, 79
2.1151526, 0.989492, 2.2240875, 114, 117, 124
2.1151526, 0.989492, 2.2422433, 115, 118, 123
2.1333084, 0.989492, 2.2240875, 100, 100, 111
2.1333084, 0.989492, 2.2422433, 127, 128, 139
2.1514642, 0.9531804, 2.1877759, 74, 72, 79
2.1514642, 0.9713362, 2.1877759, 67, 64, 72
2.1514642, 0.9713362, 2.2059317, 81, 80, 89
2.16962, 0.9531804, 2.1877759, 92, 91, 99
2.16962, 0.9531804, 2.2059317, 109, 110, 121
2.16962, 0.9713362, 2.1877759, 83, 82, 90
2.16962, 0.9713362, 2.2059317, 96, 97, 107
2.1514642, 0.9531804, 2.2240875, 149, 156, 170
2.1514642, 0.9531804, 2.2422433, 155, 163, 177
2.1514642, 0.9713362, 2.2240875, 125, 129, 142
2.1514642, 0.9713362, 2.2422433, 130, 132, 145
2.16962, 0.9531804, 2.2240875, 158, 164, 178
2.16962, 0.9531804, 2.2422433, 173, 181, 196
2.16962, 0.9713362, 2.2240875, 139, 145, 158
2.1514642, 0.989492, 2.1877759, 94, 93, 105
2.1514642, 0.989492, 2.2059317, 82, 79, 89
2.1514642, 1.0076479, 2.1877759, 92, 92, 103
2.1514642, 1.0076479, 2.2059317, 103, 102, 113
2.16962, 1.0076479, 2.1877759, 92, 91, 100
2.16962, 1.0076479, 2.2059317, 132, 132, 142
2.1514642, 0.989492, 2.2240875, 100, 98, 109
2.1514642, 0.989492, 2.2422433, 121, 119, 130
2.1514642, 1.0076479, 2.2240875, 105, 103, 114
2.1514642, 1.0076479, 2.2422433, 98, 96, 104
2.16962, 1.0076479, 2.2240875, 140, 140, 151
2.16962, 1.0076479, 2.2422433, 96, 93, 100
2.1151526, 0.9713362, 2.260399, 117, 120, 126
2.1151526, 0.9713362, 2.278555, 122, 125, 130
2.1333084, 0.9713362, 2.260399, 130, 131, 141
2.1333084, 0.9713362, 2.278555, 129, 130, 138
2.1151526, 0.9713362, 2.2967107, 133, 136, 143
2.1151526, 0.9713362, 2.3148665, 143, 146, 152
2.1333084, 0.9713362, 2.2967107, 145, 147, 155
2.1333084, 0.9713362, 2.3148665, 153, 155, 164
2.1151526, 0.989492, 2.260399, 104, 106, 110
2.1151526, 0.989492, 2.278555, 99, 101, 106
2.1151526, 0.989492, 2.2967107, 111, 114, 120
2.1151526, 0.989492, 2.3148665, 129, 132, 138
2.1333084, 0.989492, 2.3148665, 147, 149, 157
2.1514642, 0.9713362, 2.260399, 131, 131, 142
2.1514642, 0.9713362, 2.278555, 134, 133, 144
2.1514642, 0.9713362, 2.2967107, 146, 146, 157
2.1514642, 0.9713362, 2.3148665, 148, 149, 161
2.1514642, 0.989492, 2.260399, 127, 125, 137
2.1514642, 0.989492, 2.278555, 131, 130, 142
2.16962, 0.989492, 2.260399, 120, 118, 128
2.16962, 0.989492, 2.278555, 126, 124, 135
2.16962, 1.0076479, 2.260399, 104, 102, 109
2.16962, 1.0076479, 2.278555, 115, 113, 122
2.1514642, 0.989492, 2.2967107, 140, 139, 152
2.1514642, 0.989492, 2.3148665, 142, 143, 155
2.16962, 0.989492, 2.2967107, 135, 133, 145
2.16962, 0.989492, 2.3148665, 133, 133, 144
2.16962, 1.0076479, 2.2967107, 124, 123, 132
2.16962, 1.0076479, 2.3148665, 121, 120, 130
2.16962, 1.0258037, 2.16962, 104, 104, 115
2.0425293, 1.0258037, 2.2422433, 119, 118, 127
2.0606852, 1.0258037, 2.2422433, 117, 117, 125
2.0606852, 1.0439595, 2.2422433, 107, 106, 115
2.078841, 1.0258037, 2.2422433, 119, 119, 125
2.078841, 1.0439595, 2.2422433, 106, 105, 112
2.0969968, 1.0258037, 2.2422433, 108, 108, 112
2.0425293, 1.0258037, 2.260399, 96, 94, 106
2.0425293, 1.0258037, 2.278555, 77, 75, 87
2.0425293, 1.0439595, 2.260399, 94, 92, 105
2.0606852, 1.0258037, 2.260399, 93, 92, 103
2.0606852, 1.0258037, 2.278555, 70, 67, 79
2.0606852, 1.0439595, 2.260399, 85, 84, 94
2.0606852, 1.0439595, 2.278555, 69, 67, 77
2.0425293, 1.0258037, 2.2967107, 75, 72, 84
2.0606852, 1.0258037, 2.2967107, 66, 64, 74
2.0606852, 1.0258037, 2.3148665, 71, 68, 78
2.078841, 1.0258037, 2.260399, 86, 85, 91
2.078841, 1.0258037, 2.278555, 65, 64, 71
2.078841, 1.0439595, 2.260399, 82, 81, 89
2.078841, 1.0439595, 2.278555, 69, 67, 75
2.0969968, 1.0258037, 2.260399, 79, 78, 83
2.0969968, 1.0258037, 2.278555, 68, 67, 72
2.078841, 1.0258037, 2.2967107, 65, 63, 70
2.078841, 1.0258037, 2.3148665, 71, 69, 76
2.0969968, 1.0258037, 2.2967107, 64, 63, 68
2.16962, 1.0258037, 2.1877759, 94, 93, 102
2.16962, 1.0258037, 2.2059317, 135, 134, 146
2.16962, 1.0258037, 2.2240875, 137, 136, 148
2.16962, 1.0258037, 2.2422433, 96, 94, 102
2.16962, 1.0439595, 2.2422433, 110, 108, 119
2.16962, 1.0258037, 2.260399, 94, 91, 98
2.16962, 1.0258037, 2.278555, 102, 100, 107
2.16962, 1.0439595, 2.260399, 91, 88, 96
2.1877759, 0.8805571, 2.0425293, 127, 129, 145
2.1877759, 0.8805571, 2.0606852, 141, 142, 159
2.1877759, 0.89871293, 2.0425293, 125, 126, 139
2.1877759, 0.89871293, 2.0606852, 148, 149, 164
2.2059317, 0.89871293, 2.0425293, 124, 123, 136
2.2059317, 0.89871293, 2.0606852, 142, 142, 157
2.1877759, 0.8805571, 2.078841, 132, 134, 149
2.1877759, 0.8805571, 2.0969968, 137, 137, 151
2.1877759, 0.89871293, 2.078841, 134, 135, 149
2.1877759, 0.89871293, 2.0969968, 130, 129, 143
2.2059317, 0.89871293, 2.078841, 137, 137, 152
2.2059317, 0.89871293, 2.0969968, 127, 127, 140
2.2059317, 0.91686875, 2.0425293, 127, 126, 138
2.2059317, 0.91686875, 2.0606852, 147, 146, 159
2.2059317, 0.93502456, 2.0425293, 120, 118, 128
2.2059317, 0.93502456, 2.0606852, 153, 152, 165
2.1877759, 0.91686875, 2.0969968, 125, 125, 139
2.2059317, 0.91686875, 2.078841, 147, 146, 159
2.2059317, 0.91686875, 2.0969968, 130, 130, 143
2.2059317, 0.93502456, 2.078841, 150, 151, 165
2.2059317, 0.93502456, 2.0969968, 132, 134, 148
2.2240875, 0.91686875, 2.0606852, 153, 151, 165
2.2240875, 0.93502456, 2.0425293, 120, 118, 129
2.2240875, 0.93502456, 2.0606852, 147, 146, 160
2.2240875, 0.93502456, 2.078841, 150, 150, 165
2.2240875, 0.93502456, 2.0969968, 137, 139, 154
2.1877759, 0.8805571, 2.1151526, 144, 145, 161
2.1877759, 0.89871293, 2.1151526, 129, 129, 143
2.1877759, 0.89871293, 2.1333084, 121, 120, 135
2.2059317, 0.89871293, 2.1333084, 131, 131, 146
2.1877759, 0.8805571, 2.16962, 115, 115, 129
2.1877759, 0.89871293, 2.1514642, 110, 109, 122
2.1877759, 0.89871293, 2.16962, 119, 119, 133
2.2059317, 0.89871293, 2.1514642, 121, 121, 136
2.2059317, 0.89871293, 2.16962, 121, 122, 136
2.1877759, 0.91686875, 2.1151526, 125, 125, 139
2.2059317, 0.91686875, 2.1151526, 125, 125, 139
2.2059317, 0.91686875, 2.1333084, 134, 135, 151
2.2059317, 0.93502456, 2.1151526, 123, 125, 140
2.2059317, 0.93502456, 2.1333084, 131, 134, 150
2.1877759, 0.91686875, 2.1514642, 135, 137, 152
2.1877759, 0.91686875, 2.16962, 128, 129, 144
2.1877759, 0.93502456, 2.16962, 131, 134, 148
2.2059317, 0.91686875, 2.1514642, 145, 147, 163
2.2059317, 0.91686875, 2.16962, 135, 136, 151
2.2059317, 0.93502456, 2.1514642, 141, 144, 160
2.2059317, 0.93502456, 2.16962, 147, 149, 164
2.2059317, 0.9531804, 2.0969968, 134, 137, 154
2.2059317, 0.9713362, 2.0969968, 143, 145, 163
2.2240875, 0.9531804, 2.0425293, 118, 116, 127
2.2240875, 0.9531804, 2.0606852, 129, 128, 142
2.2240875, 0.9713362, 2.0425293, 118, 115, 125
2.2240875, 0.9713362, 2.0606852, 130, 129, 142
2.2240875, 0.9531804, 2.078841, 139, 140, 156
2.2240875, 0.9531804, 2.0969968, 139, 141, 158
2.2240875, 0.9713362, 2.078841, 145, 147, 163
2.2240875, 0.9713362, 2.0969968, 151, 153, 171
2.2240875, 0.989492, 2.0425293, 118, 116, 125
2.2240875, 0.989492, 2.0606852, 136, 135, 149
2.2240875, 1.0076479, 2.0425293, 114, 112, 121
2.2240875, 1.0076479, 2.0606852, 133, 132, 145
2.2422433, 0.989492, 2.0425293, 122, 121, 130
2.2422433, 0.989492, 2.0606852, 136, 135, 148
2.2422433, 1.0076479, 2.0425293, 119, 118, 127
2.2422433, 1.0076479, 2.0606852, 134, 133, 146
2.2240875, 0.989492, 2.078841, 151, 153, 170
2.2240875, 0.989492, 2.0969968, 161, 164, 182
2.2240875, 1.0076479, 2.078841, 140, 142, 158
2.2240875, 1.0076479, 2.0969968, 149, 153, 170
2.1877759, 0.9713362, 2.1151526, 113, 114, 126
2.1877759, 0.9713362, 2.1333084, 104, 104, 115
2.2059317, 0.9531804, 2.1151526, 130, 133, 149
2.2059317, 0.9531804, 2.1333084, 128, 132, 147
2.2059317, 0.9713362, 2.1151526, 136, 140, 157
2.2059317, 0.9713362, 2.1333084, 125, 129, 143
2.1877759, 0.9531804, 2.1514642, 133, 138, 152
2.1877759, 0.9531804, 2.16962, 130, 134, 148
2.1877759, 0.9713362, 2.1514642, 121, 124, 137
2.1877759, 0.9713362, 2.16962, 124, 127, 141
2.2059317, 0.9531804, 2.1514642, 133, 137, 153
2.2059317, 0.9531804, 2.16962, 146, 150, 165
2.2059317, 0.9713362, 2.1514642, 125, 130, 145
2.1877759, 0.989492, 2.1151526, 121, 120, 133
2.1877759, 0.989492, 2.1333084, 119, 119, 131
2.1877759, 1.0076479, 2.1333084, 136, 135, 150
2.2059317, 0.989492, 2.1151526, 150, 151, 168
2.2059317, 0.989492, 2.1333084, 143, 145, 160
2.2059317, 1.0076479, 2.1151526, 155, 156, 172
2.2059317, 1.0076479, 2.1333084, 157, 158, 173
2.1877759, 1.0076479, 2.1514642, 130, 130, 145
2.1877759, 1.0076479, 2.16962, 130, 131, 145
2.2059317, 1.0076479, 2.1514642, 147, 149, 164
2.2240875, 0.9713362, 2.1151526, 138, 141, 157
2.2240875, 0.989492, 2.1151526, 157, 158, 175
2.2240875, 1.0076479, 2.1151526, 150, 153, 168
2.2240875, 1.0076479, 2.1333084, 153, 155, 170
2.1877759, 0.8805571, 2.1877759, 139, 141, 156
2.1877759, 0.8805571, 2.2059317, 166, 171, 187
2.1877759, 0.89871293, 2.1877759, 154, 157, 173
2.1877759, 0.89871293, 2.2059317, 166, 170, 186
2.1877759, 0.89871293, 2.2240875, 162, 167, 183
2.1877759, 0.91686875, 2.1877759, 144, 146, 161
2.1877759, 0.91686875, 2.2059317, 167, 171, 187
2.1877759, 0.93502456, 2.1877759, 122, 123, 137
2.1877759, 0.93502456, 2.2059317, 144, 148, 164
2.2059317, 0.91686875, 2.1877759, 136, 137, 153
2.2059317, 0.93502456, 2.1877759, 134, 136, 150
2.1877759, 0.91686875, 2.2240875, 172, 178, 194
2.1877759, 0.93502456, 2.2240875, 160, 166, 182
2.1877759, 0.9531804, 2.1877759, 113, 113, 125
2.1877759, 0.9531804, 2.2059317, 119, 121, 135
2.1877759, 0.9531804, 2.2240875, 156, 161, 177
2.1877759, 1.0076479, 2.278555, 112, 111, 118
2.1877759, 1.0076479, 2.2967107, 117, 115, 124
2.1877759, 1.0076479, 2.3148665, 106, 104, 112
2.2240875, 1.0258037, 2.0425293, 115, 114, 123
2.2240875, 1.0258037, 2.0606852, 122, 122, 134
2.2240875, 1.0439595, 2.0425293, 114, 114, 122
2.2240875, 1.0439595, 2.0606852, 108, 108, 117
2.2422433, 1.0258037, 2.0606852, 126, 127, 139
2.2240875, 1.0258037, 2.078841, 126, 128, 141
2.2240875, 1.0258037, 2.0969968, 136, 139, 155
2.2240875, 1.0439595, 2.078841, 114, 115, 127
2.2240875, 1.0439595, 2.0969968, 140, 143, 157
2.2240875, 1.0621153, 2.0425293, 108, 108, 117
2.2240875, 1.0621153, 2.0606852, 99, 99, 108
2.2240875, 1.0802711, 2.0425293, 111, 112, 122
2.2240875, 1.0802711, 2.0606852, 98, 98, 106
2.2240875, 1.0621153, 2.078841, 112, 112, 123
2.2240875, 1.0621153, 2.0969968, 129, 132, 145
2.2240875, 1.0802711, 2.078841, 104, 104, 113
2.2240875, 1.0802711, 2.0969968, 114, 115, 125
2.2059317, 1.0258037, 2.1151526, 135, 136, 152
2.2059317, 1.0258037, 2.1333084, 148, 150, 165
2.2059317, 1.0439595, 2.1333084, 137, 140, 157
2.1877759, 1.0258037, 2.1514642, 137, 137, 152
2.1877759, 1.0258037, 2.16962, 140, 141, 155
2.2059317, 1.0258037, 2.1514642, 147, 149, 164
2.2059317, 1.0258037, 2.16962, 151, 152, 166
2.2059317, 1.0439595, 2.1514642, 139, 140, 156
2.2059317, 1.0439595, 2.16962, 141, 142, 157
2.2059317, 1.0621153, 2.1333084, 132, 136, 152
2.2059317, 1.0802711, 2.1333084, 110, 113, 126
2.2059317, 1.0621153, 2.1514642, 130, 132, 147
2.2059317, 1.0621153, 2.16962, 126, 128, 143
2.2059317, 1.0802711, 2.1514642, 101, 102, 113
2.2059317, 1.0802711, 2.16962, 88, 87, 99
2.2240875, 1.0258037, 2.1151526, 138, 140, 156
2.2240875, 1.0258037, 2.1333084, 139, 140, 156
2.2240875, 1.0439595, 2.1151526, 147, 150, 165
2.2240875, 1.0439595, 2.1333084, 139, 142, 159
2.2240875, 1.0621153, 2.1151526, 141, 143, 158
2.2240875, 1.0621153, 2.1333084, 136, 139, 155
2.2240875, 1.0802711, 2.1151526, 117, 119, 132
2.2240875, 1.0802711, 2.1333084, 115, 119, 133
2.2059317, 1.1165828, 2.0606852, 108, 108, 115
2.2059317, 1.0984269, 2.078841, 95, 93, 99
2.2059317, 1.0984269, 2.0969968, 87, 86, 92
2.2059317, 1.1165828, 2.078841, 92, 90, 95
2.2059317, 1.1165828, 2.0969968, 81, 78, 85
2.1877759, 1.1528944, 2.0425293, 67, 62, 67
2.1877759, 1.1528944, 2.0606852, 68, 63, 68
2.2059317, 1.1347386, 2.0606852, 92, 91, 96
2.2059317, 1.1528944, 2.0425293, 71, 67, 72
2.2059317, 1.1528944, 2.0606852, 78, 75, 79
2.1877759, 1.1347386, 2.078841, 70, 68, 72
2.1877759, 1.1528944, 2.078841, 66, 63, 66
2.2059317, 1.1347386, 2.078841, 86, 84, 90
2.2059317, 1.1347386, 2.0969968, 78, 74, 80
2.2240875, 1.0984269, 2.0425293, 123, 124, 137
2.2240875, 1.0984269, 2.0606852, 106, 106, 115
2.2240875, 1.1165828, 2.0425293, 122, 123, 133
2.2240875, 1.1165828, 2.0606852, 114, 114, 123
2.2422433, 1.0984269, 2.0425293, 133, 134, 147
2.2422433, 1.1165828, 2.0425293, 134, 135, 145
2.2240875, 1.0984269, 2.078841, 97, 96, 103
2.2240875, 1.0984269, 2.0969968, 95, 94, 101
2.2240875, 1.1165828, 2.078841, 101, 100, 106
